2.449679356087728763e+02,2.451316511709657675e+02,2.455455327797911309e+02,2.454255303572734022e+02,2.447872670667770194e+02,2.453557897884052750e+02,2.445497574640073992e+02,2.436922187901473933e+02,2.443084128881855577e+02,2.445219198890180223e+02,2.439770765944747666e+02,2.431488474009582603e+02,2.439082260332094165e+02,2.441491890161445895e+02,2.442771336182735240e+02,2.447776650200952702e+02,2.441891858119187191e+02,2.449549439616721145e+02,2.448636757461657396e+02,2.462184440714085270e+02,2.465746724015350537e+02,2.485132172788871969e+02,2.492531722501605032e+02,2.507364011903469532e+02,2.509877008465012409e+02,2.528266606055782404e+02,2.540858928940887154e+02,2.539491157766943275e+02,2.559068933408588293e+02,2.569154053916091129e+02,2.585120899906783620e+02,2.593076918953352674e+02,2.601706782777802687e+02,2.611267488090231268e+02,2.614666486833480121e+02,2.628228478958189953e+02,2.625080807329678692e+02,2.631505683734699232e+02,2.641778049384810174e+02,2.631303265137336780e+02,2.635758256880543513e+02,2.639679167868280274e+02,2.623949957580396699e+02,2.628840624046594030e+02,2.621532740750159860e+02,2.628847267148925653e+02,2.604479672404586950e+02,2.609321961670158316e+02,2.591432966637651134e+02,2.589286214277150293e+02,2.589791205896988799e+02,2.586328801446692864e+02,2.573222235593186724e+02,2.566613778797143937e+02,2.564279397400530343e+02,2.565238474488829183e+02,2.553242337656313339e+02,2.548096517665617284e+02,2.543484411513460941e+02,2.535405839493755877e+02,2.545182906256835622e+02,2.527098397272421835e+02,2.522220310487081179e+02,2.527866670213962550e+02,2.505815643069434770e+02,2.504544247613973766e+02,2.487258912598833263e+02,2.470372747688040533e+02,2.461126999803436775e+02,2.450264466314073672e+02,2.433228785998234400e+02,2.409334945543081119e+02,2.386938503310303474e+02,2.367810153754479359e+02,2.345195237721088404e+02,2.312006006259553317e+02,2.290672803639864128e+02,2.266569606589747252e+02,2.251006484736548430e+02,2.239863653305665423e+02,2.211948223607067234e+02,2.190169876503266551e+02,2.173732941651802832e+02,2.167264963223578320e+02,2.159354820113321978e+02,2.148450432915389854e+02,2.147442697851865603e+02,2.138000039109724355e+02,2.136287081468288420e+02,2.139639683541969646e+02,2.153039139817693695e+02,2.146292151832837476e+02,2.167182845596242657e+02,2.163013596658452400e+02,2.177550343014619045e+02,2.182190541085194582e+02,2.193860440475087046e+02,2.199282631409178350e+02,2.219279954078070318e+02,2.223134072154458636e+02,2.233011420990772251e+02,2.241382713151156452e+02,2.262875882848580034e+02,2.282311567258817888e+02,2.292673314356940466e+02,2.294735070534398176e+02,2.322556402487944069e+02,2.329409647223708646e+02,2.353240132620844918e+02,2.366823284508685106e+02,2.382104562957096618e+02,2.403123216355097327e+02,2.418432018178101828e+02,2.434027311315802820e+02,2.458693832045767351e+02,2.482691949839189078e+02,2.488985469281436167e+02,2.507901605652901367e+02,2.517177165300896888e+02
2.460831427239762661e+02,2.446488441509775100e+02,2.454861895660311575e+02,2.452656578447091249e+02,2.458997154075287028e+02,2.448035470490555667e+02,2.459468191745421848e+02,2.454665955087930058e+02,2.446012453310188732e+02,2.450339545014604710e+02,2.453307656830770043e+02,2.442599755769942078e+02,2.446170164918873411e+02,2.448058111362220188e+02,2.453378544882857852e+02,2.460599516702967264e+02,2.460809888663793856e+02,2.469317744535771055e+02,2.462015348393903764e+02,2.474879134768286804e+02,2.487494744873811214e+02,2.494714530517122455e+02,2.502192585261344959e+02,2.507770527633708753e+02,2.512076307883677941e+02,2.519601751341149907e+02,2.538795054974507650e+02,2.545847736532549561e+02,2.556957297511942215e+02,2.564617603951735987e+02,2.574990066182018040e+02,2.579484049317286463e+02,2.590035468562126084e+02,2.593493990553644153e+02,2.600162614504044996e+02,2.614329850072322188e+02,2.624038804142239769e+02,2.614892888142082938e+02,2.613261144665641496e+02,2.612290185190952911e+02,2.629776975983532452e+02,2.619977005126631298e+02,2.614940570580649819e+02,2.610881647248229456e+02,2.618194563278757983e+02,2.598114974225478022e+02,2.594708188855705089e+02,2.596383567430968924e+02,2.595405690088676920e+02,2.578558837621369548e+02,2.570456104917046787e+02,2.561607899001610917e+02,2.566027152893385619e+02,2.554604195215809739e+02,2.542072655713595566e+02,2.556459435176810473e+02,2.546231810801945130e+02,2.545198017364944576e+02,2.539460251653687806e+02,2.533586801703080198e+02,2.532654978381606838e+02,2.527434916685517692e+02,2.524982387653185185e+02,2.525680410927139405e+02,2.510954603407941192e+02,2.495569986595826322e+02,2.480432274685589107e+02,2.478058262783405041e+02,2.469739285165465219e+02,2.445024578673160818e+02,2.417868868667655704e+02,2.410343188134917511e+02,2.376158563314288870e+02,2.357302552225959857e+02,2.339904364320156844e+02,2.308879207875739326e+02,2.288634048201868723e+02,2.263456111388159115e+02,2.237263746522461929e+02,2.224375505905076693e+02,2.198327457392276756e+02,2.180791620126921657e+02,2.162601669271533069e+02,2.155051871546244797e+02,2.148202779203008390e+02,2.145073557686123706e+02,2.138880575440823293e+02,2.136967735420719521e+02,2.133053903929488513e+02,2.147187267513549500e+02,2.148787359083153206e+02,2.143881628714748615e+02,2.158287104189952004e+02,2.160762482791320451e+02,2.172680395999962002e+02,2.186614764746792616e+02,2.191173428002230139e+02,2.213740352174921213e+02,2.215192140581949047e+02,2.227519002024945962e+02,2.243845557517039140e+02,2.252871035335042791e+02,2.263550576823485869e+02,2.276074372460678319e+02,2.301323820968908649e+02,2.311696458920917507e+02,2.325772283248664394e+02,2.346786337178024269e+02,2.361712003837656084e+02,2.374112744168528764e+02,2.399599916677672127e+02,2.414534291126726373e+02,2.422252477108225150e+02,2.448805490771106008e+02,2.460381350684449444e+02,2.481174483724017819e+02,2.502905736550623033e+02,2.514016333776088743e+02,2.531884081949954464e+02
2.464083637943045346e+02,2.451995108264646603e+02,2.470470478846477533e+02,2.473372735302561978e+02,2.460285054062482573e+02,2.462143990627901076e+02,2.453421069306975539e+02,2.468265362325400361e+02,2.467719725076210864e+02,2.453808413582284516e+02,2.471600399850458416e+02,2.460099179178312454e+02,2.459968919672908214e+02,2.464657553546230702e+02,2.472302814709477445e+02,2.466792173951294274e+02,2.471968766812749720e+02,2.478443871762042647e+02,2.483124723001634209e+02,2.483342421447654544e+02,2.493772803767200799e+02,2.504866557740136273e+02,2.514054683391498486e+02,2.513986694965714435e+02,2.523751536715727752e+02,2.530404522984879065e+02,2.540315200401032598e+02,2.547211671428213435e+02,2.559899427298882983e+02,2.558073369702739228e+02,2.569265811609552088e+02,2.583864504742949748e+02,2.582914014460442331e+02,2.581687563254092765e+02,2.595451422163130815e+02,2.590775158264548850e+02,2.594304715412515634e+02,2.599237006778438399e+02,2.602894682658076135e+02,2.597344169811628376e+02,2.606857979470001396e+02,2.607250416688705172e+02,2.594120010814796160e+02,2.598515936515320846e+02,2.602273778117524898e+02,2.586080803741984937e+02,2.587597150191831474e+02,2.581069506200121850e+02,2.574343677103755681e+02,2.563022141099276041e+02,2.564384168991032311e+02,2.554720615507116293e+02,2.551885475467124706e+02,2.558851176718729050e+02,2.541640105915735717e+02,2.542735035399415153e+02,2.536726037614738232e+02,2.534048376932871065e+02,2.540096472465832846e+02,2.532562118102835029e+02,2.530561131978049616e+02,2.534081884541655540e+02,2.510632608719338350e+02,2.517260933113099384e+02,2.500345198928428090e+02,2.509255152322892570e+02,2.486081012709602760e+02,2.479379073220509895e+02,2.448721491714352396e+02,2.431832087653225756e+02,2.412429432560620626e+02,2.394696733824378327e+02,2.374848265710323574e+02,2.347074636239106553e+02,2.321614287060506854e+02,2.300055427056494182e+02,2.282130938249388805e+02,2.259486681685400242e+02,2.237123433328287661e+02,2.217975328423767962e+02,2.188326178659556547e+02,2.167956655032132005e+02,2.171899557773434708e+02,2.148693680565548902e+02,2.156148518580928055e+02,2.131618607607176443e+02,2.125005966152718031e+02,2.131937735588887222e+02,2.137553611029627518e+02,2.137248515338760342e+02,2.137422610320276419e+02,2.148735333069034255e+02,2.157458431269347443e+02,2.154582311405338260e+02,2.173834664151133893e+02,2.194229311801868221e+02,2.189944118856967918e+02,2.204835998054901154e+02,2.226249768020387307e+02,2.234288891294632720e+02,2.251927332154585599e+02,2.260831231176336189e+02,2.274767540619336330e+02,2.288906013004146303e+02,2.309817215025351231e+02,2.324674257033302638e+02,2.345153182672031562e+02,2.357179438378593090e+02,2.382606102081236372e+02,2.397955573473042534e+02,2.419751872790334062e+02,2.433508832397063770e+02,2.446147959879744462e+02,2.463245827134383035e+02,2.477670544326795152e+02,2.493363310701984688e+02,2.516051167615026429e+02,2.534494077380773263e+02,2.528808736479028312e+02
2.450290913072957721e+02,2.464787949497264492e+02,2.462179952302041386e+02,2.460940291599953014e+02,2.465821928553776559e+02,2.465758694965760753e+02,2.479824269710041733e+02,2.468240677042823847e+02,2.469622000215208573e+02,2.470963792174394769e+02,2.480454196019884705e+02,2.478746956100515035e+02,2.480333190406338417e+02,2.477423639819753589e+02,2.475325435436497514e+02,2.478280061145503339e+02,2.490383851882963029e+02,2.500690860162733031e+02,2.502805681761715562e+02,2.501524556303923532e+02,2.509209106259551447e+02,2.514358861174378887e+02,2.520774038796722891e+02,2.526986144732856303e+02,2.534514626274672935e+02,2.537891187000390119e+02,2.536933882234741588e+02,2.539047177668918209e+02,2.552066930990035871e+02,2.553400074919491658e+02,2.562603120959506100e+02,2.562633794036048585e+02,2.567719810703559915e+02,2.569850403236627017e+02,2.581289673340997979e+02,2.585566711401020825e+02,2.577222823144285826e+02,2.589051140001291742e+02,2.580293594280462912e+02,2.582691071180666427e+02,2.593916341955401208e+02,2.576780209774594823e+02,2.585817983869761179e+02,2.578591451875566349e+02,2.571574021417571885e+02,2.573492662458917266e+02,2.565817738937164449e+02,2.572103634843949180e+02,2.557520704628747410e+02,2.557132137626672659e+02,2.554543254219796324e+02,2.549949457861466442e+02,2.555786732288763687e+02,2.540314199886194046e+02,2.542682159013729972e+02,2.531641652255609074e+02,2.547916645339003878e+02,2.540495945575818553e+02,2.529421938479669336e+02,2.527855490807906449e+02,2.522450305408470967e+02,2.514441409436507229e+02,2.517760921295242156e+02,2.519262949831071126e+02,2.496385159648365288e+02,2.498958361163347774e+02,2.485446115860369503e+02,2.473522106995397962e+02,2.445998955974524733e+02,2.430982308153995177e+02,2.412131686014666627e+02,2.385764840719902224e+02,2.368612271046567059e+02,2.339857500710161560e+02,2.311074764151080387e+02,2.290205769860714042e+02,2.263168769155196571e+02,2.240123614183653729e+02,2.222820963382720265e+02,2.200857231797998850e+02,2.179608060695633185e+02,2.160559812076230060e+02,2.149256553455438450e+02,2.135736437314153591e+02,2.131350444970476872e+02,2.135488479982545869e+02,2.122562578626444179e+02,2.129011555481438052e+02,2.122903623550066072e+02,2.133239932074685044e+02,2.153016339022750572e+02,2.150486590946246110e+02,2.157756442959963010e+02,2.164280881352655399e+02,2.171200651028977404e+02,2.186143664926253791e+02,2.200832857065488213e+02,2.216937455124251244e+02,2.227526077101757664e+02,2.239198829667005839e+02,2.259133027571145078e+02,2.265590830039030834e+02,2.289713245606371856e+02,2.299492018870410561e+02,2.312342454538743084e+02,2.336722812386335306e+02,2.357290530137446751e+02,2.366186940680961186e+02,2.396325944696229726e+02,2.404660294826668405e+02,2.418930055100988170e+02,2.444987286920340068e+02,2.458271638804223755e+02,2.467169623278127801e+02,2.491022036576530923e+02,2.509346075626749553e+02,2.518270360845263269e+02,2.530528566388315141e+02,2.545070934139845917e+02
2.461076457153754689e+02,2.454203274117477349e+02,2.474847654386514932e+02,2.464067091313400510e+02,2.473957967426017888e+02,2.488090539576083984e+02,2.483038328402086563e+02,2.484872428229276409e+02,2.488318611398931921e+02,2.494423133211931258e+02,2.488989408045829919e+02,2.499866055556737763e+02,2.487105503188460887e+02,2.498599436487103560e+02,2.502874115407611271e+02,2.499040248142053713e+02,2.501678988358671631e+02,2.511164841813896942e+02,2.502385200915856274e+02,2.521922819813578940e+02,2.519732935472527799e+02,2.527536827636138241e+02,2.535018673062635628e+02,2.531898459527064915e+02,2.529708154893688459e+02,2.533906297770547269e+02,2.549319431649617513e+02,2.546625047537137334e+02,2.551676128648309430e+02,2.552782493008377287e+02,2.560133298264173050e+02,2.556577755321621339e+02,2.555791154950326529e+02,2.562407231800684713e+02,2.560292862427156706e+02,2.564561441830950344e+02,2.563524826215711414e+02,2.567811780479719914e+02,2.570975599155670466e+02,2.580246373080535705e+02,2.563667293446328017e+02,2.574143046911104307e+02,2.571130918391491491e+02,2.566124917259134577e+02,2.559819937034228019e+02,2.559734843954329335e+02,2.551692920270762102e+02,2.550729790828421244e+02,2.543270179162965121e+02,2.541540176904584882e+02,2.545462708743455380e+02,2.545374876353340312e+02,2.535692462026466387e+02,2.540532347727501019e+02,2.537378545458915653e+02,2.537815850609591735e+02,2.525850596807258626e+02,2.528263828424879307e+02,2.520691135321217757e+02,2.537169828719702593e+02,2.521019871695490053e+02,2.524550569832777853e+02,2.500008945668909348e+02,2.505563639502005628e+02,2.507371058938079500e+02,2.490806190993358769e+02,2.472205514819177381e+02,2.460226399792800294e+02,2.447145845007626690e+02,2.432619286303769286e+02,2.398151252768628865e+02,2.385447419297518650e+02,2.363433903488962358e+02,2.339758420514940269e+02,2.305084546436676760e+02,2.280805660012096325e+02,2.260799408923495548e+02,2.230812822438608123e+02,2.223361396051309384e+02,2.201234760533582460e+02,2.173958946522920996e+02,2.165264422203045740e+02,2.152309885478557874e+02,2.136995121061424925e+02,2.131787063397950135e+02,2.124688054709802429e+02,2.128438882002729144e+02,2.119328587672782760e+02,2.120755212303313897e+02,2.136182711163033900e+02,2.144949128257360087e+02,2.159443413834189300e+02,2.156428198165182266e+02,2.169700968756146153e+02,2.183685854754213551e+02,2.198471550334220126e+02,2.204815378492442903e+02,2.222479884113009234e+02,2.246292951229338541e+02,2.247752089895383847e+02,2.266688163248996943e+02,2.287943501102949710e+02,2.298211986887347962e+02,2.316150455325260680e+02,2.335865831544878972e+02,2.348507330643957971e+02,2.352857434098234251e+02,2.378459752265079317e+02,2.399636819515301909e+02,2.423339075929641524e+02,2.428713290949006591e+02,2.460955280462948167e+02,2.474202593083220449e+02,2.494769925632632237e+02,2.498388822360670645e+02,2.523649974884857556e+02,2.533057615813652603e+02,2.540466694531436076e+02,2.558133002390976287e+02
2.454210910270029729e+02,2.472135129200389372e+02,2.476496081502821198e+02,2.475435131744657156e+02,2.480982236652400843e+02,2.483838957177631528e+02,2.487272011185505960e+02,2.490967570896649761e+02,2.503454041312690777e+02,2.488192456665218231e+02,2.511698390719006966e+02,2.509779998680969015e+02,2.510405274003675800e+02,2.513990946530971087e+02,2.514323703931716807e+02,2.522734668916346266e+02,2.513482443673683804e+02,2.516966927348712488e+02,2.521006989928673647e+02,2.525740102485710565e+02,2.529730802708642443e+02,2.530556494070489464e+02,2.535577790997267584e+02,2.541005246543308260e+02,2.539561014766401570e+02,2.549712141947426289e+02,2.537384848854306654e+02,2.541476114803521682e+02,2.546522981603597771e+02,2.534492636022052920e+02,2.550967502409553731e+02,2.542606125464932632e+02,2.552439877082219368e+02,2.543241264507131518e+02,2.548849799143313533e+02,2.542879748787276242e+02,2.544144741558237399e+02,2.554942382245933175e+02,2.545728169755228123e+02,2.545724432934655681e+02,2.550860983032568186e+02,2.549411622240987469e+02,2.551007632013895829e+02,2.548547945955000671e+02,2.546252071189957462e+02,2.554449905108628798e+02,2.546818816936310270e+02,2.533512651850346060e+02,2.533380030994784704e+02,2.530265470208811962e+02,2.531689946391105934e+02,2.533531001981233715e+02,2.524226253083585902e+02,2.527789206318767015e+02,2.519523946941149859e+02,2.526080758594682720e+02,2.528750083638170736e+02,2.518188766118475428e+02,2.530426216841637768e+02,2.524254555720886231e+02,2.513822016998219908e+02,2.510191967405765183e+02,2.514053959926627897e+02,2.508818611860547776e+02,2.498590143540508564e+02,2.487410309755655362e+02,2.473548191422915181e+02,2.463203615558867341e+02,2.438831431403716294e+02,2.418685180434277981e+02,2.396148071917996276e+02,2.375740832645853686e+02,2.350125784277087746e+02,2.330569005340446438e+02,2.300214048189347693e+02,2.281861311998327153e+02,2.256195507066098855e+02,2.227894561308403354e+02,2.209702882245491651e+02,2.192709723417599434e+02,2.187542035774700082e+02,2.145446266481042414e+02,2.140166801417586839e+02,2.129287550819248338e+02,2.134346230724516147e+02,2.118643146234085464e+02,2.121836533846291104e+02,2.126187035203412279e+02,2.131106028458561070e+02,2.134560757425887800e+02,2.136882550555218927e+02,2.146281436357742223e+02,2.154628851536976981e+02,2.172328790326276078e+02,2.191862800862571135e+02,2.209412224813731029e+02,2.215072976465178556e+02,2.234286655820991427e+02,2.242341803605515906e+02,2.270081586861857375e+02,2.274827969114343489e+02,2.286969599711629257e+02,2.309005636785919364e+02,2.325099766998914390e+02,2.349634849554148559e+02,2.360691221205561590e+02,2.381757150330180366e+02,2.402773159799859570e+02,2.409659804064836237e+02,2.432280971534956109e+02,2.459516933827351579e+02,2.469780059372715755e+02,2.492234059118467826e+02,2.494235958093570105e+02,2.517026512406961558e+02,2.522330536305228748e+02,2.543489949247747575e+02,2.552162767550243530e+02,2.572441794252891896e+02
2.462664697889435104e+02,2.472244166199248525e+02,2.482986649519011735e+02,2.478839057363602194e+02,2.493104237674408523e+02,2.500377087507654892e+02,2.497524298891208900e+02,2.510662478897460517e+02,2.513885559858212844e+02,2.521373665136139266e+02,2.525854143896642654e+02,2.519797922542067852e+02,2.522353563806518935e+02,2.530248866829664109e+02,2.526284560469166820e+02,2.539518799916498892e+02,2.531520272659473392e+02,2.533410257076660344e+02,2.543023538029094937e+02,2.541441837776538648e+02,2.553569624678537195e+02,2.536561540913147894e+02,2.541461181138276118e+02,2.553550311065309870e+02,2.544924365754784787e+02,2.538527734783429537e+02,2.553253759982288500e+02,2.546742896832082295e+02,2.534350502362154884e+02,2.549176246257835885e+02,2.538493416441671116e+02,2.531652578584296123e+02,2.538405763522424934e+02,2.540855269406113450e+02,2.530260547987631412e+02,2.531564599756929397e+02,2.526814824065976950e+02,2.521293276953506961e+02,2.529474923557555144e+02,2.535144715311572270e+02,2.532399625405471681e+02,2.530504935262721062e+02,2.529396867088833574e+02,2.531001542655961885e+02,2.520933132177503921e+02,2.531073442550336665e+02,2.517587118028778548e+02,2.519056717461051562e+02,2.525404957230676075e+02,2.519398955543728391e+02,2.524569747519370537e+02,2.520393874003149222e+02,2.524687413399415732e+02,2.519894559912410443e+02,2.513455980405681771e+02,2.524498416696335141e+02,2.518517230326557694e+02,2.522154082219907707e+02,2.520406449412025722e+02,2.518640875332980045e+02,2.521010682706617843e+02,2.518354419696416358e+02,2.511004671153299341e+02,2.499268437595743535e+02,2.485764474824494812e+02,2.477788206064712710e+02,2.464141015833962456e+02,2.454976640686298026e+02,2.433842013193597040e+02,2.417028132557018409e+02,2.400945330634728236e+02,2.370237121338740280e+02,2.336759116083748324e+02,2.307272922394053012e+02,2.295627442079471052e+02,2.261784890967094270e+02,2.243437620073710264e+02,2.217893288353048717e+02,2.189978613622526495e+02,2.179926954047226673e+02,2.165241044427621091e+02,2.148261072189011998e+02,2.137787135584188718e+02,2.128907422397414280e+02,2.127988259471267440e+02,2.124312173741760148e+02,2.127240203728702284e+02,2.124385004911124497e+02,2.131712986974332580e+02,2.138230198962845066e+02,2.146069364415452867e+02,2.166781804174660238e+02,2.164368806359389623e+02,2.188413954239483701e+02,2.187877418475306683e+02,2.211559099033613620e+02,2.227077082773116103e+02,2.244699436293555266e+02,2.249949574718742440e+02,2.267530604273750328e+02,2.291967491989333894e+02,2.297707043171529335e+02,2.315277634414832448e+02,2.332106063513604965e+02,2.353749655200858513e+02,2.377906631692854091e+02,2.384761190202578121e+02,2.402238068109305402e+02,2.422166386133770288e+02,2.443170685277712266e+02,2.463815932950180070e+02,2.485321415768134727e+02,2.497735600831973954e+02,2.519678185447471321e+02,2.525829224643108262e+02,2.536531753097847854e+02,2.549522066894296017e+02,2.566915425461513109e+02,2.574083513604127234e+02
2.474751436085066985e+02,2.483800746571772322e+02,2.487871717955634665e+02,2.499150296576289918e+02,2.500723217777432126e+02,2.500080432581517016e+02,2.514503481892431012e+02,2.524311299515097176e+02,2.525291160202540368e+02,2.532185544557658829e+02,2.532965206424341318e+02,2.538933244437339170e+02,2.542763520133550514e+02,2.538714560725585443e+02,2.539988310716800584e+02,2.556012781832467908e+02,2.552360891584619651e+02,2.560817864744539065e+02,2.548578300668802683e+02,2.557334577095933241e+02,2.553676713448106170e+02,2.547673456323205414e+02,2.552464524479499346e+02,2.560666122691216060e+02,2.539745720442268180e+02,2.546105535951038803e+02,2.546673246748718498e+02,2.535346779198056595e+02,2.533878870195590309e+02,2.544801852377124192e+02,2.528715731361279779e+02,2.519506502855702195e+02,2.528835698165000849e+02,2.523809814251943067e+02,2.520311915519915260e+02,2.520024223061760722e+02,2.514298504831290302e+02,2.520871569675270507e+02,2.511852800585218404e+02,2.495835950349446080e+02,2.506174016263326223e+02,2.516105424942439583e+02,2.506421789681149335e+02,2.507619584223504887e+02,2.513825387586007309e+02,2.511870489758126723e+02,2.509719615578915466e+02,2.512008880699591771e+02,2.504882407146456842e+02,2.517816148919214925e+02,2.509700298059632075e+02,2.513271531573420532e+02,2.514714527337710592e+02,2.516876050803458895e+02,2.513575096312592052e+02,2.514733429852200857e+02,2.510147196127027200e+02,2.515330902020547796e+02,2.518182225970163586e+02,2.515291895986047450e+02,2.516984655854165283e+02,2.509259319275009545e+02,2.500872552238330115e+02,2.498936503037058685e+02,2.491055913119654406e+02,2.473417649778900227e+02,2.463926019131888268e+02,2.457304588056871353e+02,2.431260269964687950e+02,2.408116787547330375e+02,2.391521657149072269e+02,2.372620868014833775e+02,2.339126852072714087e+02,2.314210341293855890e+02,2.284191889526017292e+02,2.255943576241838855e+02,2.241737144668635153e+02,2.203383578031470904e+02,2.205239855076447384e+02,2.170387881600093749e+02,2.152683366289027447e+02,2.133494511590884031e+02,2.140449935340216143e+02,2.129396554608891847e+02,2.129034268266951813e+02,2.125750548221842848e+02,2.127764077723505238e+02,2.136137523565215020e+02,2.139658441863465441e+02,2.140922395618248686e+02,2.152958538431284126e+02,2.165547635840063663e+02,2.182734678740632717e+02,2.189494428525624983e+02,2.209647162253732517e+02,2.223589780615373002e+02,2.228677327609247243e+02,2.248982537855326598e+02,2.262781447489209654e+02,2.285933158993230165e+02,2.293756574935531205e+02,2.320867816185026982e+02,2.332670620760422366e+02,2.347455748831097821e+02,2.360581593371434508e+02,2.381790452650920713e+02,2.405237621569298199e+02,2.423391620297191480e+02,2.435049182460766417e+02,2.448631209042987678e+02,2.473825379129652617e+02,2.497671775875732294e+02,2.510473464267472252e+02,2.519306355055586266e+02,2.539124153361001959e+02,2.548865670319285357e+02,2.560149219540670629e+02,2.579278247765054743e+02,2.577002666349158062e+02
2.478145391762805048e+02,2.488721567774827008e+02,2.489831976147871160e+02,2.494680559977447274e+02,2.500289070071146114e+02,2.525908772024755535e+02,2.522680330023683268e+02,2.530275629606489929e+02,2.543061993437888191e+02,2.547011255380144235e+02,2.548612417351210411e+02,2.549920010520982316e+02,2.559248200385979430e+02,2.555226186272689120e+02,2.554514487926258823e+02,2.571749647303182655e+02,2.570966961342585932e+02,2.563147368628443701e+02,2.566389409228211775e+02,2.564258187397206825e+02,2.560244252292125680e+02,2.560744761368419518e+02,2.560882286354926123e+02,2.553494317178078177e+02,2.556518065490545268e+02,2.546946086987899776e+02,2.540908127234362723e+02,2.542024303027640997e+02,2.541145569614562021e+02,2.526199489123549426e+02,2.520768488651963821e+02,2.525607147678610716e+02,2.511776076470933106e+02,2.506359869751115355e+02,2.498928224968928191e+02,2.506558739742940816e+02,2.494524756075206255e+02,2.492917626651024250e+02,2.489970804218486649e+02,2.488928078500819083e+02,2.492642235657985736e+02,2.492408622576291748e+02,2.493674391600862066e+02,2.485696294102873196e+02,2.487454605671472052e+02,2.491047301416198252e+02,2.493207983355299859e+02,2.494834286874052225e+02,2.501360753028568524e+02,2.508351312011706682e+02,2.500013681528886309e+02,2.504910916141444375e+02,2.501619888785814680e+02,2.503453534707227561e+02,2.500028655780735676e+02,2.506256411584843704e+02,2.508023313914351888e+02,2.512004397602819665e+02,2.514045823748493262e+02,2.510798825269492340e+02,2.508742296499733015e+02,2.503367052746658601e+02,2.501474772117210819e+02,2.492887627342547319e+02,2.491260064966158438e+02,2.463806088508566745e+02,2.462288447740342576e+02,2.439414981344048101e+02,2.420911525151453816e+02,2.409968155963494496e+02,2.378618112751026672e+02,2.362302342567251117e+02,2.340311009987618149e+02,2.317585672622324751e+02,2.279766090701957353e+02,2.255071015245200385e+02,2.230275647451340149e+02,2.206111280137692177e+02,2.191924272034009959e+02,2.177025357213846917e+02,2.152657048007510241e+02,2.149235246650505644e+02,2.127038349370519086e+02,2.128948365475974072e+02,2.125426640622647199e+02,2.122308073643646367e+02,2.124091202737137394e+02,2.139035757582130941e+02,2.134384847083348404e+02,2.154485135911591840e+02,2.159203971638838766e+02,2.171499057243284199e+02,2.184361136360609805e+02,2.200820497298599037e+02,2.219245136758013928e+02,2.220223459134372206e+02,2.242354552407047947e+02,2.259542805949085107e+02,2.280418172693353256e+02,2.289939843157023915e+02,2.305439623405551686e+02,2.324230577322863951e+02,2.341794792529649101e+02,2.377325353449436705e+02,2.376091622315568088e+02,2.389608643025713945e+02,2.415123983949753210e+02,2.430243928310824231e+02,2.447134572635065410e+02,2.473508622550670850e+02,2.485488244446873694e+02,2.507345958782475748e+02,2.506594431561857732e+02,2.528701915759686756e+02,2.538596734879024837e+02,2.556396971715346069e+02,2.572292269740755160e+02,2.572508785957926989e+02,2.586700275308078290e+02
2.481683374234309554e+02,2.488851896724297887e+02,2.498901789590930207e+02,2.509190452464981718e+02,2.516975959348357605e+02,2.527164441693249444e+02,2.536061493939955085e+02,2.546699457817551036e+02,2.548278602162267532e+02,2.559902920945009726e+02,2.567291556932112826e+02,2.563259072924919337e+02,2.573637424356947463e+02,2.581304864237284846e+02,2.572144116186090059e+02,2.577808374154117814e+02,2.575631680870474725e+02,2.577615128087591643e+02,2.578441383679930254e+02,2.576002540162554624e+02,2.576913970291355440e+02,2.573297547186381848e+02,2.569504077380125295e+02,2.558201776775027270e+02,2.549416547396934050e+02,2.545667625630822783e+02,2.536089514986879578e+02,2.534530432164976332e+02,2.525708476269468861e+02,2.513626172473950078e+02,2.508987504766327561e+02,2.508784865487317006e+02,2.498823610532788848e+02,2.503862429950909814e+02,2.488243513168554273e+02,2.498615382438112533e+02,2.481951848860265670e+02,2.479034580583504521e+02,2.476275672999323376e+02,2.470275278025810053e+02,2.473676395493594384e+02,2.475357613207058591e+02,2.478650943039864956e+02,2.470946941796301530e+02,2.475307799415778618e+02,2.486013788310328891e+02,2.479164452077367855e+02,2.492078590972298571e+02,2.492384468884521027e+02,2.490964679698021200e+02,2.485048814670890351e+02,2.490218699556058652e+02,2.499313771864668183e+02,2.501157653646816073e+02,2.501896265739464411e+02,2.504283153664862880e+02,2.507882333551034151e+02,2.501343101236392386e+02,2.508623336354564231e+02,2.506023025886052835e+02,2.503355186349068617e+02,2.491976034208557849e+02,2.493580070792000924e+02,2.477494400745301846e+02,2.472443841497546657e+02,2.475871771620040533e+02,2.450688010830066617e+02,2.438664524001531504e+02,2.414645990980057775e+02,2.395017401355561901e+02,2.381031501661534264e+02,2.345032650861446655e+02,2.319631123670719433e+02,2.304124242916897458e+02,2.282792235064196404e+02,2.255091320466204934e+02,2.230085603828833030e+02,2.208667243415284531e+02,2.185278963807958235e+02,2.177356472738983939e+02,2.157481439137853840e+02,2.139282873998421621e+02,2.137984992873790020e+02,2.131292474287374148e+02,2.138416970903346623e+02,2.128561470400954931e+02,2.132698832802044819e+02,2.140093695731163166e+02,2.147478744507423301e+02,2.163506779286374240e+02,2.175668859042748409e+02,2.180624620001279652e+02,2.198732067577880969e+02,2.203779592181602140e+02,2.222506643110177151e+02,2.245862585043026343e+02,2.253811403447513158e+02,2.264773463230194750e+02,2.283429146987039076e+02,2.307294316218269330e+02,2.318939480493614553e+02,2.320466811498166635e+02,2.360358178132704552e+02,2.364522541320908431e+02,2.379784461198851204e+02,2.408901655799614332e+02,2.424643809676363730e+02,2.436972175823024145e+02,2.455291689809459683e+02,2.486510722686842030e+02,2.499038707671151371e+02,2.511682560984310726e+02,2.524981946756872730e+02,2.545492389788087451e+02,2.553701333862653655e+02,2.570212713379091838e+02,2.573822719936657109e+02,2.584798448857167159e+02,2.591238709808045542e+02
2.492099018317026662e+02,2.501877079279537952e+02,2.503345306498577258e+02,2.528886491094447990e+02,2.530057150736558924e+02,2.541932482902941501e+02,2.545940617851198340e+02,2.554762399282566321e+02,2.569468377291840966e+02,2.563908635357474850e+02,2.567851105829215612e+02,2.567777488826994841e+02,2.579631801881619708e+02,2.589188848681646391e+02,2.583108102717528141e+02,2.591481475216882018e+02,2.591972623016406487e+02,2.586798330298359474e+02,2.589220554579004556e+02,2.585535545025165902e+02,2.579094729688545726e+02,2.575517973584907168e+02,2.572137217692967965e+02,2.560551439396605815e+02,2.553281131254913703e+02,2.541598814240056754e+02,2.541698852818952332e+02,2.527503036651085893e+02,2.526857831498639371e+02,2.505972127024612064e+02,2.504338830872251265e+02,2.488495429791272500e+02,2.490293380272538002e+02,2.479874224508423026e+02,2.472247386306229657e+02,2.477833467755038157e+02,2.461079420998929095e+02,2.467196740915695443e+02,2.467449425994633714e+02,2.460196783225137267e+02,2.458205162823492174e+02,2.464096936826938133e+02,2.456198322898430888e+02,2.463635274712445948e+02,2.455191017194981669e+02,2.460735766651241647e+02,2.466328223846592778e+02,2.471836950101004220e+02,2.480022592768297613e+02,2.475495536851056499e+02,2.476203031075974934e+02,2.486188904537399083e+02,2.491000756544177079e+02,2.481856859513698907e+02,2.492578302342362235e+02,2.487884505216158573e+02,2.498283373831579297e+02,2.495174065568631079e+02,2.491881905965958026e+02,2.504080075556113343e+02,2.495800847750525691e+02,2.492950292000762147e+02,2.493464564848358975e+02,2.486088519903019289e+02,2.478503014069092956e+02,2.467560296066204444e+02,2.440901762653666367e+02,2.435368861216474841e+02,2.412831094298071548e+02,2.402501529282548631e+02,2.373932949502103895e+02,2.352096078277191964e+02,2.328981344755563612e+02,2.295339292990057629e+02,2.276714164998051899e+02,2.245139704500190021e+02,2.235109079527093456e+02,2.209006782142839711e+02,2.181153821981943111e+02,2.173388119890606163e+02,2.155043446599750894e+02,2.134182228158593659e+02,2.136720898453329198e+02,2.139916264876906098e+02,2.135297173191917182e+02,2.133764452594590466e+02,2.141650681276413763e+02,2.145655043611616577e+02,2.166446599448948973e+02,2.169544670044143686e+02,2.178224949457832338e+02,2.201485464205075573e+02,2.204283330396602310e+02,2.217793269397102449e+02,2.237992586183606534e+02,2.251191445769551933e+02,2.260614247934151706e+02,2.268954918865995296e+02,2.300138905087001433e+02,2.311306809023576534e+02,2.338542181488789709e+02,2.346396780855089048e+02,2.371075377144614720e+02,2.384905212568536399e+02,2.398223608739031931e+02,2.414032457631075488e+02,2.435424371096573566e+02,2.456888400075042398e+02,2.468692493325111172e+02,2.499371778696482238e+02,2.496007299870728957e+02,2.515499029319263684e+02,2.537843724109841048e+02,2.546990924381965726e+02,2.559308583299524003e+02,2.573093318347619629e+02,2.569232999521727265e+02,2.579067154528466972e+02,2.596343990139673110e+02
2.500462496088984494e+02,2.511150267035022239e+02,2.524445814376014994e+02,2.532014018128442103e+02,2.534049115972678976e+02,2.543909106670949143e+02,2.563001500386322959e+02,2.567965096910886018e+02,2.567619323213548910e+02,2.589013461794793898e+02,2.590626349085442257e+02,2.596717330594882469e+02,2.603381213434277015e+02,2.608412495164735674e+02,2.597340960822787110e+02,2.596991623848451241e+02,2.613663866208267450e+02,2.599206111265664276e+02,2.604453234321323976e+02,2.579481568330152754e+02,2.586213408107476539e+02,2.584119921262743560e+02,2.568471591919310413e+02,2.558548786268542869e+02,2.549758709247239494e+02,2.548666849673322474e+02,2.524274981506750350e+02,2.517194409146920293e+02,2.519522726618046988e+02,2.505828363326376973e+02,2.492232802312013860e+02,2.489778443846898028e+02,2.466187830007717423e+02,2.454771773531730048e+02,2.457015064705288978e+02,2.456857547119072080e+02,2.449342135037671255e+02,2.446355050820503152e+02,2.450391715262493904e+02,2.453221624804416479e+02,2.444226470041604102e+02,2.448590510696654121e+02,2.443838841209739314e+02,2.435510557507623730e+02,2.456968134411494304e+02,2.453901137147996963e+02,2.457868061125363681e+02,2.466195994681501134e+02,2.465352933556577852e+02,2.469462997269134235e+02,2.476837448487717666e+02,2.476549090618489970e+02,2.479016509594436002e+02,2.477126274954593157e+02,2.482830538351279301e+02,2.483614682067482704e+02,2.494002757427353174e+02,2.498770991352420197e+02,2.493469999002766144e+02,2.488777306708008439e+02,2.496710834203090030e+02,2.490247146451430069e+02,2.488282687703510305e+02,2.480088478066665800e+02,2.461619395186798442e+02,2.458047999829193202e+02,2.448079032889947655e+02,2.422743102093746472e+02,2.400534422345891130e+02,2.374972362969505753e+02,2.366111490406123039e+02,2.339229270547785973e+02,2.305339212652243646e+02,2.297381964834091264e+02,2.263834920739124357e+02,2.252980744852322914e+02,2.224408543320645322e+02,2.196457755992800003e+02,2.188606739747261258e+02,2.174843120868080177e+02,2.156911920864989725e+02,2.149010396959854745e+02,2.140779504952688512e+02,2.142672353058249257e+02,2.138559985124022660e+02,2.141102652460305364e+02,2.152904599507814680e+02,2.158171164002082776e+02,2.171104956182959427e+02,2.184228908922000585e+02,2.197945161760295889e+02,2.197005477300962752e+02,2.229203023918966267e+02,2.234211513213276987e+02,2.246834386470771108e+02,2.259160989987272217e+02,2.286547144495174564e+02,2.301546667008857412e+02,2.309984301903126891e+02,2.329527993932985908e+02,2.342755642425621261e+02,2.356941503718563524e+02,2.375984855961963547e+02,2.391562603433734182e+02,2.402458610175819445e+02,2.432863355022801102e+02,2.452181987777031509e+02,2.458476781903789572e+02,2.485273094813184116e+02,2.489955389559330854e+02,2.517026669729329740e+02,2.524363140814149062e+02,2.536798895870146282e+02,2.551305166011276526e+02,2.561946077141299156e+02,2.572014486737339780e+02,2.570176157953702614e+02,2.589218349780544486e+02,2.589136841381917407e+02
2.508035183724003900e+02,2.514330250333983940e+02,2.527176446797718086e+02,2.530252727017510779e+02,2.559293037608544523e+02,2.554440897349471697e+02,2.577182487546669449e+02,2.583428622393931278e+02,2.592917797010387631e+02,2.593796443790367334e+02,2.604547681439015037e+02,2.609123094869572697e+02,2.611832673395664983e+02,2.610491046949914562e+02,2.618951077097198095e+02,2.612799474234273589e+02,2.609310219115650966e+02,2.609130900762879151e+02,2.606166204855009596e+02,2.610940204811893182e+02,2.591376592247509052e+02,2.584357585020270562e+02,2.564946966920505247e+02,2.566387679275254072e+02,2.548621062017150223e+02,2.541433605065778920e+02,2.535008846938817442e+02,2.514314312468978017e+02,2.504543403575172249e+02,2.503289684463200615e+02,2.483285192686441007e+02,2.474165769057303521e+02,2.452232940928207938e+02,2.448980769832105295e+02,2.439822203943942895e+02,2.441997637033387605e+02,2.432840389121521980e+02,2.429257707294519264e+02,2.427428405305460899e+02,2.426395114383458349e+02,2.420600832207884991e+02,2.438560157541177205e+02,2.433650445233886614e+02,2.422334902363770368e+02,2.435250978989071200e+02,2.443001262462483965e+02,2.446233997844641976e+02,2.444766781267154272e+02,2.454085693170912350e+02,2.460877631360253872e+02,2.467321423035714076e+02,2.463268310134915851e+02,2.462884531519022744e+02,2.483318562167986272e+02,2.482969793165235615e+02,2.472717963733704778e+02,2.488153123938713520e+02,2.485551596180046943e+02,2.494869705463820537e+02,2.490683622003466837e+02,2.493276694580034132e+02,2.490427787545948206e+02,2.490489775455002928e+02,2.474675706283432532e+02,2.462185960004766514e+02,2.458011209921313025e+02,2.430214423726845325e+02,2.420271050523607812e+02,2.407990882740850509e+02,2.387081799951349126e+02,2.356308574145356260e+02,2.331542308009016722e+02,2.308304059866904652e+02,2.299238359433030041e+02,2.254863315385441354e+02,2.249894714181201039e+02,2.220611290711969161e+02,2.206644716383924276e+02,2.188918567886626931e+02,2.179210720737133329e+02,2.168272827035673060e+02,2.147586801731022490e+02,2.148256457085076647e+02,2.147959301635816587e+02,2.147199145632050659e+02,2.157857645622107725e+02,2.162384440249028899e+02,2.163786873615096056e+02,2.179114281998333240e+02,2.183007306391229463e+02,2.209989866963902614e+02,2.220255911128836601e+02,2.234466705003443394e+02,2.250533187349249147e+02,2.263072384210905454e+02,2.281898459509049530e+02,2.286458248215833748e+02,2.312042877824545428e+02,2.316356948787266958e+02,2.337633871410538688e+02,2.355916842572679570e+02,2.370782805594586478e+02,2.379824586834287174e+02,2.406284602652094975e+02,2.419132196065061748e+02,2.445549862982718707e+02,2.456621785119421872e+02,2.478522319745374034e+02,2.487710499952967496e+02,2.499631334017836650e+02,2.521389827669156318e+02,2.531483137627776046e+02,2.547866491215146993e+02,2.560881263031431558e+02,2.569962329984264215e+02,2.582672434603738338e+02,2.593682717793292909e+02,2.583746996806108314e+02,2.586266898837322401e+02
2.520860187937310002e+02,2.527000873188239325e+02,2.547416288548408829e+02,2.552593316984765295e+02,2.571578223514678143e+02,2.586243735410193381e+02,2.585070175287672214e+02,2.591058173279319021e+02,2.591579984073458149e+02,2.612712342510216672e+02,2.600750286311302375e+02,2.619751407780760246e+02,2.629771498329885731e+02,2.630257158519359564e+02,2.617504364548699414e+02,2.626129555834085068e+02,2.614446369534291534e+02,2.618660489889276732e+02,2.616970216428182425e+02,2.616500995385238184e+02,2.589060188631732444e+02,2.590937477517474008e+02,2.582821369117840504e+02,2.566513687423838519e+02,2.558994149998443675e+02,2.529582865342779598e+02,2.520319730670190665e+02,2.518787852570927157e+02,2.493586734481054634e+02,2.487196651978314890e+02,2.478093513407083037e+02,2.453971978931225806e+02,2.442812681992183457e+02,2.433179681487528967e+02,2.431627205141425634e+02,2.419890454300949045e+02,2.420404299707354596e+02,2.416121915389561252e+02,2.421872603107247812e+02,2.411078288011428583e+02,2.413052266774873544e+02,2.421977046692753390e+02,2.425424212412606266e+02,2.421289549915341013e+02,2.429751074004048803e+02,2.433430342543977929e+02,2.431261323735057260e+02,2.446666320726523338e+02,2.439710075644092058e+02,2.441868450198830089e+02,2.445400579263826728e+02,2.454926526836653977e+02,2.459091795492573169e+02,2.465650094654684210e+02,2.480747093419659848e+02,2.468635238598688204e+02,2.481633375865744995e+02,2.478650266993823834e+02,2.488238655769875720e+02,2.488515479144670337e+02,2.481562827216481821e+02,2.479162541928904204e+02,2.476599861371906286e+02,2.459556888198924298e+02,2.451701838436844980e+02,2.451842325532585676e+02,2.431384911130980413e+02,2.405838203319305535e+02,2.391583663348439757e+02,2.371348206349269674e+02,2.350632667778577058e+02,2.327666364752559787e+02,2.303550359706260906e+02,2.288587189901355998e+02,2.255321542086952888e+02,2.238690125237380073e+02,2.219841917780509846e+02,2.191829093458837576e+02,2.183514712605621071e+02,2.175371198569371245e+02,2.158632780515799254e+02,2.161535820860339641e+02,2.151073479781325091e+02,2.149469756953722310e+02,2.154540661210384371e+02,2.170762861118648743e+02,2.173257700365508640e+02,2.180618982319367092e+02,2.194563199469679660e+02,2.204088800563495738e+02,2.214606364552983280e+02,2.235084642637438037e+02,2.245866415534498515e+02,2.260829509936087334e+02,2.260707642043057035e+02,2.278875508610531426e+02,2.303066607882486778e+02,2.326112902882510980e+02,2.341507159402362674e+02,2.346476567620987623e+02,2.362341045686544589e+02,2.389230984709523398e+02,2.392821057855763343e+02,2.411393741191491529e+02,2.432078797918689190e+02,2.449829836877723608e+02,2.460287564141602275e+02,2.486788413007452618e+02,2.499454737058033515e+02,2.506136472044198911e+02,2.527299681551383230e+02,2.539631053713278845e+02,2.549880611608553238e+02,2.561624370314202110e+02,2.559260395021833006e+02,2.575830978296942817e+02,2.581200721177042965e+02,2.586857971860350176e+02,2.584850999499881254e+02
2.538280698529598283e+02,2.535324839847615692e+02,2.555575108357696195e+02,2.562691106264107361e+02,2.575697671679334917e+02,2.583871326690501746e+02,2.601506606082235180e+02,2.610498559313355145e+02,2.613125637391632949e+02,2.620108932800313255e+02,2.637248283957600279e+02,2.633722514081428017e+02,2.634154349081863984e+02,2.637062381702396578e+02,2.637011568836499578e+02,2.636365528244414804e+02,2.626337364714349860e+02,2.624785034389300336e+02,2.618330133919973832e+02,2.617219715204136037e+02,2.609642749156355421e+02,2.589709249057299871e+02,2.581221657243738150e+02,2.560885943988549229e+02,2.552504542167602324e+02,2.535620039983587048e+02,2.524298044332780364e+02,2.504233690830737089e+02,2.491986559903668308e+02,2.484030674256605096e+02,2.456108276358061460e+02,2.445199911598336087e+02,2.442602002133643282e+02,2.415069515131141031e+02,2.419132294138113366e+02,2.407524925594715910e+02,2.403531271395622184e+02,2.396594334618198161e+02,2.406861467194273700e+02,2.402039877189425852e+02,2.410141187789380126e+02,2.402281898118826575e+02,2.407441602070706210e+02,2.409259245950752870e+02,2.408509111622534533e+02,2.413425121379672760e+02,2.425957186013727380e+02,2.425464562089228480e+02,2.441045110363639310e+02,2.441496099640186230e+02,2.444333807234322080e+02,2.451679131338547961e+02,2.451807184794555781e+02,2.463065791752859468e+02,2.472744804109491952e+02,2.476639012861571416e+02,2.472126857812941978e+02,2.476702038947548488e+02,2.472410499363784595e+02,2.486515640900065875e+02,2.471260581135278471e+02,2.473702759159456832e+02,2.470098447721684352e+02,2.458713585382865290e+02,2.451031699462245967e+02,2.435514686231691996e+02,2.428194202796509558e+02,2.407663382628738304e+02,2.397648001022773769e+02,2.371456247334630518e+02,2.347002649849469265e+02,2.321227343680902493e+02,2.309407787621489376e+02,2.280349683484701870e+02,2.252070626089636391e+02,2.240900838275204592e+02,2.218341454845689498e+02,2.206385737840102479e+02,2.186183851308666704e+02,2.177660651475978000e+02,2.165256713984031194e+02,2.155787057336047212e+02,2.159268008623367052e+02,2.165987694606926937e+02,2.155832749591768334e+02,2.168422790536041020e+02,2.181181002703337697e+02,2.193952789025079255e+02,2.195105158851179112e+02,2.206172307653386326e+02,2.225658102710873720e+02,2.235284791234518593e+02,2.252986468990385163e+02,2.276612288671572912e+02,2.289750175259299283e+02,2.306811801903220100e+02,2.317237380721270483e+02,2.323630538566618782e+02,2.341028998220303095e+02,2.363387933556030305e+02,2.362461402751921469e+02,2.385726581264506478e+02,2.409238384023169317e+02,2.431146425100079966e+02,2.441331244850602786e+02,2.454772917037816455e+02,2.470975887010224312e+02,2.496808161745719303e+02,2.500364086170376652e+02,2.516837460328613076e+02,2.530846698555731109e+02,2.538880408763595540e+02,2.553631517134515718e+02,2.555644717004215920e+02,2.561731498681995163e+02,2.570011981480811301e+02,2.581899510231921795e+02,2.582984205684491030e+02,2.581424906350989659e+02
2.531651049279168433e+02,2.556168074043058311e+02,2.573048686754049186e+02,2.593344125343630253e+02,2.587698484629953555e+02,2.601822013095031707e+02,2.620578980013838759e+02,2.633247474388983846e+02,2.634156692661712782e+02,2.638617476192194999e+02,2.640323654313955899e+02,2.648078378490894238e+02,2.647315265093068319e+02,2.644546416209940958e+02,2.655323341991103234e+02,2.639301900577855804e+02,2.642825800529658977e+02,2.639161589215906929e+02,2.632336828333997687e+02,2.615187589265294719e+02,2.598680397684413492e+02,2.599442510458731022e+02,2.580327000585052701e+02,2.560747331989677491e+02,2.553971582398372107e+02,2.532722006059477167e+02,2.511681706674788472e+02,2.511865319727507995e+02,2.491427576113468376e+02,2.462366735314521691e+02,2.462100619813818980e+02,2.451193811643469189e+02,2.429737478528516306e+02,2.421315999436260142e+02,2.407546053657854372e+02,2.400162797327086821e+02,2.400623305651390353e+02,2.387667299062636062e+02,2.397176129343695266e+02,2.393247065481013465e+02,2.392962060012019663e+02,2.401732200053958195e+02,2.394808270600319986e+02,2.402878766129918233e+02,2.401692354509222298e+02,2.413444773413538940e+02,2.412032814826865490e+02,2.416618422959072348e+02,2.423370042852980646e+02,2.436935805352823934e+02,2.442371547354743484e+02,2.441362791548106088e+02,2.435802685471431914e+02,2.451296114415511624e+02,2.467354576847120313e+02,2.461904644921973784e+02,2.468770546521868425e+02,2.469984281390378271e+02,2.468504574006160226e+02,2.462520991670947126e+02,2.471333777098606959e+02,2.458363571925837334e+02,2.470372429689942635e+02,2.454088246341125625e+02,2.447822408467839637e+02,2.428890619051309727e+02,2.419360084463695557e+02,2.401723713544142242e+02,2.392317483151572333e+02,2.363280491573435995e+02,2.341642422613714416e+02,2.326681440438383106e+02,2.302531587411853025e+02,2.276987834592561342e+02,2.251968900582959634e+02,2.238332739989102151e+02,2.210532347514011917e+02,2.190753089110642691e+02,2.181814364316537080e+02,2.178245000164754401e+02,2.163828966762676771e+02,2.157581895585525444e+02,2.166752974398583262e+02,2.166246623199710086e+02,2.171831700005579648e+02,2.172617642258305750e+02,2.193760724461776590e+02,2.196780920864335940e+02,2.208181231969256260e+02,2.219424853698159552e+02,2.232466970531686457e+02,2.253155552203608067e+02,2.262382987918105641e+02,2.284802245819136601e+02,2.292340968227734379e+02,2.310183906651333814e+02,2.327550078696018261e+02,2.339746006197424606e+02,2.365761642263969122e+02,2.370077822551920974e+02,2.383542458028130682e+02,2.398708788538203294e+02,2.420043188035043329e+02,2.430173046331611602e+02,2.455162431941817829e+02,2.461913854253667182e+02,2.474841378720328180e+02,2.492949804556652964e+02,2.496277633991243476e+02,2.514581608401201436e+02,2.536638438858042264e+02,2.540344983602237221e+02,2.553586467174241932e+02,2.554369530416500993e+02,2.567756641440983003e+02,2.575057735059825177e+02,2.572276414328165970e+02,2.572372175469374724e+02,2.575705128345413186e+02
2.551156443286667752e+02,2.569403682148571306e+02,2.589108519063267408e+02,2.597219383575630900e+02,2.602765494909926360e+02,2.612797409749816779e+02,2.630647916356327869e+02,2.632066904658133808e+02,2.639757831198804752e+02,2.651417255305181584e+02,2.661684472858277672e+02,2.657032743796466434e+02,2.653215866363578925e+02,2.652405491852157979e+02,2.664387028091319962e+02,2.654482687003879846e+02,2.655526035776427420e+02,2.639559523293867187e+02,2.634520955699120464e+02,2.625749125105612620e+02,2.613870329373568211e+02,2.597516150459925370e+02,2.578152664788652828e+02,2.565826725956069367e+02,2.548625128685094978e+02,2.525512521191549524e+02,2.521109006002012052e+02,2.496228599860762927e+02,2.477368138702938154e+02,2.467090492066377010e+02,2.455985640637771041e+02,2.430096766378136124e+02,2.410614354313223089e+02,2.412879820947960354e+02,2.402779053835432705e+02,2.402330558278075046e+02,2.378288068256902648e+02,2.387010186331912678e+02,2.378591947885442437e+02,2.379200209499795733e+02,2.384691779305087778e+02,2.382368910724603950e+02,2.391913096656508628e+02,2.385911233927801050e+02,2.399861095353042231e+02,2.403685144167541523e+02,2.411286846355417026e+02,2.414554569686610819e+02,2.422233584934834312e+02,2.430747424350009567e+02,2.438146964295604278e+02,2.436168547642095064e+02,2.438309170345352754e+02,2.454005607486686813e+02,2.456571501595483653e+02,2.463781342724923036e+02,2.457301847507756634e+02,2.472173026300881702e+02,2.468699218967254296e+02,2.469867758515923697e+02,2.465364652864917048e+02,2.468134227734815909e+02,2.464034587834198078e+02,2.450830668523595932e+02,2.443403212074367445e+02,2.424321855423037562e+02,2.405941610935952326e+02,2.396704509218965882e+02,2.387081314381976824e+02,2.360964835227945571e+02,2.332519217220106782e+02,2.314472706158742028e+02,2.294037752461856883e+02,2.270577801798845314e+02,2.245105574969078361e+02,2.228245517013949950e+02,2.219364252391940795e+02,2.194402599378716729e+02,2.184633804609943297e+02,2.185046992407380344e+02,2.163996791052185529e+02,2.166632581882848854e+02,2.166707323773691485e+02,2.173303070117638924e+02,2.176984332260446422e+02,2.190984409469706407e+02,2.195102610262107135e+02,2.198838764901584852e+02,2.232622275384805164e+02,2.239034209252023686e+02,2.250234801777218649e+02,2.264212161246275059e+02,2.291776185692208117e+02,2.296367481286669090e+02,2.319070075717377790e+02,2.331286555399893246e+02,2.337727202886320015e+02,2.352882848992579170e+02,2.364829871548012079e+02,2.383718058668258948e+02,2.398996764822382488e+02,2.416751628284054050e+02,2.437443649293844601e+02,2.442677512687237140e+02,2.456281930052656151e+02,2.464657488912595227e+02,2.484590904094729638e+02,2.494576693973380941e+02,2.511007338539626801e+02,2.521908586227002615e+02,2.538921309406231046e+02,2.541297420988462932e+02,2.554886156584312005e+02,2.550976083894798592e+02,2.569208200758006342e+02,2.565250320843276768e+02,2.566988387483311271e+02,2.576365999106942581e+02,2.572067145835831639e+02
2.572565037212603443e+02,2.582899913766293025e+02,2.596364943506960117e+02,2.604822656684609115e+02,2.618769172775463403e+02,2.636820720129906022e+02,2.637575373287047569e+02,2.647469941696877527e+02,2.655402970970113756e+02,2.664723799653343690e+02,2.678200159005396586e+02,2.671608262928054955e+02,2.670189361533512056e+02,2.674663527641780547e+02,2.668669031024889478e+02,2.665247600519520574e+02,2.662900590283881570e+02,2.646709518901276397e+02,2.629977360000485191e+02,2.622763455925609151e+02,2.617459107337824094e+02,2.592845897717250523e+02,2.585926613404400314e+02,2.565493970936552728e+02,2.550788363445225286e+02,2.527002751096130453e+02,2.510569088786191969e+02,2.490966253887244193e+02,2.473231523916445553e+02,2.456777999470860721e+02,2.443007732124517872e+02,2.431380500419305690e+02,2.413750985104994697e+02,2.390054189187011673e+02,2.385295973663033635e+02,2.384876410359457566e+02,2.380466855323584525e+02,2.374296132495065876e+02,2.382998824364216262e+02,2.374597220485168236e+02,2.368920993628718747e+02,2.374362921417423422e+02,2.378109850848496478e+02,2.389174690747792908e+02,2.386999019375399200e+02,2.392378393315915162e+02,2.392839360814769520e+02,2.406470018694809028e+02,2.414448513105861025e+02,2.427534250109519007e+02,2.427047234515033836e+02,2.436452066144284174e+02,2.430419847214185154e+02,2.446717851252861351e+02,2.455452672981720355e+02,2.454999076339339865e+02,2.463794790661998775e+02,2.460840850051347672e+02,2.456347473809445034e+02,2.467337079738531429e+02,2.462772171890409822e+02,2.470305424837225416e+02,2.456799355028851153e+02,2.445831709687707871e+02,2.428458823631433177e+02,2.419453613273200006e+02,2.400347933289681350e+02,2.388310363294139052e+02,2.369330608884099831e+02,2.354759758426925771e+02,2.329085613144889635e+02,2.305783758363314462e+02,2.285616446772086192e+02,2.262967125226057021e+02,2.249359170949587678e+02,2.224249816050113679e+02,2.205355529248063249e+02,2.187828429808164969e+02,2.183522471653374453e+02,2.181032398487508317e+02,2.182886339064033621e+02,2.167780332554936820e+02,2.173978620790918512e+02,2.177507149536078828e+02,2.189503680448595162e+02,2.197943212575331700e+02,2.205739909888811212e+02,2.212414517600424517e+02,2.229516053344362092e+02,2.242563068421230810e+02,2.261729311940304399e+02,2.275197927213100968e+02,2.277992846796784363e+02,2.305862052036660259e+02,2.322430531027247014e+02,2.342600047487595987e+02,2.353493577877641485e+02,2.363022724753166983e+02,2.383538755101107256e+02,2.386674850034798396e+02,2.412686907307077320e+02,2.423141470330913592e+02,2.428471063972544925e+02,2.450311615166594663e+02,2.464173821257971326e+02,2.477278893918085885e+02,2.487552547490467134e+02,2.494273441331978347e+02,2.518135759785434686e+02,2.522916883184860524e+02,2.531476296026357602e+02,2.535972103642739626e+02,2.542057786806204547e+02,2.556532173604880427e+02,2.568068339875138690e+02,2.568285699013604813e+02,2.561140802732969632e+02,2.567271451493944028e+02,2.562718512457368547e+02
2.590108101555607050e+02,2.600746964637420433e+02,2.611161424368327744e+02,2.621752521537887333e+02,2.634313376672691902e+02,2.645554410984630067e+02,2.644907796643862525e+02,2.662359151505903014e+02,2.671140922445698038e+02,2.679205047023309589e+02,2.675762400186875425e+02,2.671711894183363825e+02,2.679825865117298918e+02,2.677507597163241257e+02,2.678484881928065420e+02,2.665837759057499738e+02,2.660545353794800576e+02,2.647075509254646590e+02,2.644337488123920821e+02,2.628550265701215380e+02,2.610323869651044788e+02,2.604453515703683593e+02,2.583877363425477824e+02,2.556347750993560055e+02,2.537925061349515943e+02,2.520340173386127844e+02,2.510432267267771635e+02,2.482942994461820376e+02,2.463667747725227173e+02,2.445223800705197732e+02,2.436128699407894658e+02,2.429243232320327479e+02,2.411631664368912311e+02,2.402678391082178564e+02,2.378680518044130565e+02,2.382528049490573494e+02,2.384685499251969532e+02,2.368069118882779094e+02,2.362056902250270980e+02,2.363854109891071005e+02,2.363862706954984674e+02,2.375297388685856959e+02,2.378764569475095243e+02,2.379264321530721986e+02,2.392773236856671133e+02,2.391602670290942001e+02,2.397650275093579921e+02,2.404768668222442045e+02,2.413659823733167116e+02,2.425658240110806503e+02,2.430061122033694687e+02,2.435960107045457903e+02,2.432259230584712668e+02,2.446042842129845383e+02,2.454509347715072352e+02,2.459153846465170261e+02,2.454941423758120607e+02,2.464844013767737749e+02,2.464493428424265176e+02,2.464542384190609141e+02,2.461662991542495149e+02,2.461215987291653562e+02,2.443634109540749648e+02,2.440418810207360991e+02,2.434528661776957961e+02,2.420153590313653353e+02,2.405933447026949068e+02,2.380767474078105010e+02,2.362026997127840104e+02,2.352132334118298331e+02,2.327133011126312283e+02,2.305232235498239106e+02,2.278365410013654753e+02,2.255546168885922782e+02,2.236889488780516047e+02,2.222274607065032512e+02,2.210515567789582292e+02,2.201062677684485038e+02,2.187557762799366969e+02,2.172282620157063491e+02,2.166589501473888504e+02,2.177553749190958854e+02,2.179440305370004012e+02,2.180163539715177308e+02,2.184911537372351518e+02,2.209873944755326534e+02,2.217859414882787235e+02,2.238673795118390331e+02,2.237932675089983263e+02,2.254120679596501020e+02,2.268901220390667959e+02,2.280196882741318802e+02,2.294396990938845136e+02,2.328620458230631414e+02,2.329868468930853851e+02,2.357506890481791402e+02,2.362043294855000113e+02,2.370215905147376816e+02,2.390445032075926406e+02,2.400010302029006652e+02,2.409535067281643421e+02,2.429223946854248197e+02,2.445536230313423403e+02,2.458372753538965299e+02,2.468869930472872340e+02,2.474704346858354995e+02,2.494774722203350166e+02,2.496417852674197775e+02,2.521281325573161780e+02,2.528151421642864136e+02,2.529710700405484829e+02,2.530075985200415687e+02,2.544995912088210162e+02,2.553109923870607076e+02,2.561235622930645945e+02,2.562882160274311332e+02,2.550337068977750619e+02,2.555212796584472983e+02,2.550642955775893483e+02
2.607092878744176119e+02,2.607888421380815203e+02,2.633710499001348353e+02,2.632151493325476963e+02,2.654830467078101037e+02,2.658252787038555311e+02,2.673366133909889868e+02,2.671898264264436307e+02,2.677174191810358366e+02,2.683497875832812838e+02,2.680580480967230983e+02,2.687440732546504591e+02,2.690838886752802068e+02,2.680136685785104191e+02,2.684959805040589913e+02,2.676053157490623562e+02,2.659716176476700298e+02,2.654582686733497781e+02,2.647627986639145661e+02,2.635888502970590821e+02,2.618713180579674713e+02,2.607242540013856456e+02,2.580432143468120216e+02,2.563702710131856293e+02,2.550283657557209267e+02,2.516523318984434070e+02,2.500122955711847226e+02,2.479294626101041672e+02,2.465347307740365750e+02,2.443679829713728111e+02,2.426695221429391438e+02,2.411207471936967295e+02,2.404108041081821057e+02,2.394407817830692125e+02,2.376287761332141883e+02,2.380263045950675860e+02,2.368565969558384552e+02,2.365719020314416241e+02,2.369703597723976713e+02,2.362848086131247385e+02,2.373120269938195008e+02,2.374190266388354189e+02,2.360919476736457057e+02,2.364188480922750273e+02,2.387786752788927913e+02,2.393502547935307518e+02,2.393529287340349185e+02,2.405279529881382530e+02,2.415257894259891600e+02,2.408787999973239380e+02,2.425813490712197904e+02,2.435382183532528586e+02,2.436749916737059891e+02,2.442972205440132711e+02,2.448336215864166263e+02,2.460736090472386195e+02,2.458537164251932268e+02,2.471480277873336320e+02,2.466251051861658254e+02,2.473561519093481991e+02,2.458340872926038401e+02,2.456483676076901190e+02,2.443599494548545010e+02,2.440399158285737258e+02,2.420743914790867279e+02,2.415211480680524687e+02,2.393822612109911745e+02,2.378771956072817488e+02,2.352676788635405103e+02,2.344498586286198361e+02,2.319770336711552545e+02,2.300527878556788437e+02,2.276943752556384766e+02,2.259882537693614211e+02,2.238012469576900116e+02,2.215799482996413019e+02,2.218515618867144212e+02,2.191646161551775549e+02,2.185469497955476754e+02,2.178550600695499782e+02,2.175294084778997501e+02,2.177854828723803280e+02,2.178801783993556285e+02,2.189952602279269911e+02,2.196224622639251152e+02,2.200979498352099881e+02,2.226899369751271252e+02,2.229907027329150822e+02,2.252675515215549353e+02,2.272022907725983885e+02,2.268672512876291592e+02,2.284670993784302482e+02,2.299004117130818656e+02,2.324088115726111141e+02,2.347585053614796493e+02,2.348172946547676645e+02,2.371981370459346010e+02,2.379855541358568018e+02,2.401474418871825094e+02,2.408629028766738145e+02,2.416493371383465387e+02,2.420107643686231711e+02,2.441944887635563077e+02,2.459024314987641731e+02,2.466362545756053066e+02,2.466631683412884684e+02,2.487487052140094477e+02,2.501787804660953327e+02,2.512048239596060455e+02,2.527277114758896062e+02,2.537649797760335844e+02,2.527928941813553934e+02,2.545223761351436451e+02,2.548696242246342649e+02,2.550205674337527739e+02,2.544239911614505161e+02,2.543829372563289439e+02,2.554299427263808582e+02,2.551395908593169679e+02
2.625333118154115368e+02,2.624129732834985589e+02,2.642703736080888461e+02,2.651910081092335645e+02,2.657351481159315085e+02,2.670785581252420684e+02,2.679293878379070293e+02,2.692076984380341855e+02,2.698055165851823745e+02,2.697283617000248341e+02,2.702808395084063591e+02,2.695333981480471834e+02,2.694275110612749131e+02,2.688577418063679829e+02,2.689305462321597133e+02,2.677167964075230202e+02,2.668181610500485590e+02,2.654633465833604191e+02,2.651181463560799330e+02,2.631354863271340605e+02,2.621070269039267373e+02,2.603696017013307937e+02,2.578787993670192122e+02,2.555350984185238019e+02,2.541424064233713693e+02,2.517294866599705188e+02,2.499017130982291803e+02,2.486870191979082279e+02,2.463543594705870703e+02,2.443629888298505932e+02,2.420660495609894554e+02,2.408611229521513621e+02,2.398910720629585001e+02,2.387459567450752331e+02,2.375993303326825696e+02,2.368695477800028186e+02,2.368091845622494986e+02,2.370152095528652580e+02,2.356394798005744065e+02,2.356624518196640850e+02,2.360539957263312090e+02,2.364742440758066380e+02,2.376267005069525453e+02,2.385500115241860897e+02,2.381252412016055189e+02,2.393866705009020563e+02,2.393072492299338307e+02,2.408392210639757707e+02,2.407874502974977418e+02,2.417425403377575037e+02,2.430712640160752755e+02,2.432428276047792508e+02,2.443784411176594631e+02,2.444883045427425827e+02,2.448101478302094733e+02,2.448353033946248161e+02,2.456017939266479857e+02,2.464069301385939923e+02,2.456545532526655791e+02,2.458577098588971523e+02,2.454960707184042690e+02,2.449392562210701669e+02,2.436249385816832103e+02,2.428213620580513918e+02,2.414143556791199501e+02,2.409961104551898643e+02,2.390562892722422816e+02,2.383661718924655872e+02,2.345328631371564541e+02,2.331991781869022873e+02,2.314734597533933709e+02,2.292345184207481168e+02,2.274887322795878219e+02,2.243680863916202100e+02,2.233011113199432884e+02,2.223881679111204051e+02,2.205860307962917375e+02,2.188703548700309511e+02,2.181733298952377709e+02,2.183463437009028496e+02,2.176340366440337277e+02,2.182422716220724794e+02,2.189490983250086060e+02,2.200266965107735473e+02,2.201264715450178642e+02,2.212426790969691410e+02,2.224395541054294085e+02,2.237830435049746711e+02,2.262113244252749382e+02,2.283220544306264514e+02,2.279044996561260348e+02,2.291485834935307082e+02,2.307186967619384745e+02,2.339122173217680256e+02,2.356856510068843420e+02,2.370965475813257228e+02,2.373625971363724148e+02,2.394198136853673020e+02,2.406451063177311482e+02,2.422474431962997130e+02,2.428616671579171680e+02,2.431856736945694308e+02,2.460288131023889662e+02,2.465253552881662245e+02,2.469967618129892628e+02,2.485444381253304584e+02,2.484740106575945902e+02,2.495463080059961953e+02,2.509471107603496591e+02,2.518822407949776903e+02,2.521773168244556302e+02,2.536341458451479696e+02,2.539076976345546370e+02,2.541007123373541958e+02,2.551592020333003461e+02,2.541405694152836645e+02,2.538904939965385097e+02,2.540946285495411132e+02,2.541658930006749699e+02
2.629394961737208973e+02,2.637276118787328301e+02,2.644015890694043378e+02,2.660417668540303566e+02,2.673158635877991287e+02,2.687226302233126489e+02,2.691725202429951764e+02,2.701299721958966984e+02,2.697921448822764887e+02,2.701418188452440177e+02,2.709215961411895819e+02,2.701989606361564142e+02,2.698559357784513395e+02,2.699577576732258990e+02,2.689609858642059521e+02,2.680916568923166778e+02,2.676510952411466064e+02,2.656966218312596766e+02,2.644831372237935625e+02,2.615531974171390743e+02,2.618483200563243827e+02,2.586418440790619684e+02,2.585373844791413944e+02,2.560756231144149524e+02,2.530686000723745224e+02,2.514628661248149228e+02,2.504032868174815860e+02,2.473868219833672981e+02,2.459260742207806061e+02,2.441239034775395851e+02,2.421005315572867573e+02,2.405406341274680244e+02,2.395990554782563891e+02,2.376437409220876873e+02,2.363622154729962972e+02,2.375709832573489564e+02,2.362039909773545219e+02,2.358628643130419391e+02,2.360826910053186509e+02,2.356449745287645499e+02,2.356121503399634207e+02,2.367756791936606646e+02,2.377102725947544855e+02,2.378826669096854687e+02,2.376994968129555446e+02,2.388566860109924619e+02,2.394730540674808026e+02,2.402381406907180974e+02,2.417893705494143433e+02,2.421661267894620551e+02,2.433509547308463539e+02,2.437719851210681838e+02,2.454473990385561990e+02,2.457069414422576585e+02,2.456678747793563389e+02,2.456067827421375114e+02,2.465927761695826916e+02,2.456696309980406454e+02,2.469914978459171664e+02,2.455311792000445621e+02,2.457790972339512621e+02,2.449010143894199985e+02,2.436933946323854343e+02,2.438118127308342764e+02,2.429553715427927330e+02,2.406518139014020790e+02,2.386252912019986070e+02,2.374438450747792615e+02,2.353516281042336118e+02,2.337178623432556890e+02,2.311895763662882644e+02,2.296937606498346724e+02,2.263320765941188881e+02,2.252008937691822155e+02,2.228200318659781942e+02,2.218531845617072804e+02,2.206529667260840313e+02,2.187727404339607347e+02,2.192121409084209347e+02,2.185213871568718957e+02,2.184070134397004779e+02,2.183341266421216744e+02,2.182702559544529208e+02,2.201889360769841915e+02,2.210886041701908482e+02,2.222025820529424891e+02,2.229252409654746714e+02,2.246972088215961776e+02,2.268035887695600081e+02,2.279825938922700459e+02,2.288977052093493398e+02,2.287958661223589445e+02,2.317818445158227973e+02,2.343370894948247098e+02,2.351600010963413467e+02,2.376073307376507842e+02,2.379114025503176322e+02,2.395306673564985260e+02,2.414001291314031334e+02,2.419718493598613520e+02,2.427595004075138831e+02,2.435503651863991479e+02,2.451637042967834930e+02,2.470083323705524947e+02,2.483183643219284988e+02,2.494144299446007267e+02,2.488065478700001449e+02,2.494582600244690411e+02,2.508000805703593983e+02,2.528215418206891343e+02,2.525399393599273310e+02,2.525445150718741445e+02,2.537236527034812639e+02,2.532265980663428593e+02,2.534595495246737755e+02,2.533296323536507657e+02,2.536591669960093327e+02,2.526495137740010932e+02,2.536850287373897572e+02
2.641770833470574757e+02,2.655899618223941161e+02,2.662854100011785476e+02,2.669082545902472248e+02,2.685309748921858386e+02,2.701513586936243883e+02,2.703144129175169041e+02,2.703515637429708249e+02,2.705061989346647806e+02,2.711227165601696925e+02,2.718645375201304546e+02,2.715960072607501274e+02,2.705615005442257370e+02,2.689578872908476228e+02,2.693105182412973591e+02,2.687736258389274440e+02,2.667531450877318662e+02,2.664838992352318883e+02,2.648354859446839669e+02,2.632817893740449904e+02,2.614275648038585018e+02,2.591815729566924347e+02,2.567062313911822571e+02,2.555453262916827555e+02,2.531877542672018535e+02,2.513465255317630920e+02,2.490517341274947114e+02,2.470183875325936071e+02,2.445415793107118532e+02,2.429159525772065535e+02,2.417225956487963288e+02,2.394171944505793590e+02,2.388475356078065488e+02,2.384379164893131815e+02,2.370349055661588125e+02,2.360256163058683683e+02,2.356788907945788765e+02,2.353934844587305975e+02,2.360828881284304543e+02,2.351343242141446694e+02,2.366719409921321073e+02,2.369921603805299242e+02,2.376845065918964792e+02,2.372605145230730272e+02,2.380942213240994079e+02,2.395767357208899284e+02,2.405389828630341640e+02,2.415008011257860971e+02,2.424080926695361313e+02,2.423020163773236391e+02,2.436426160754525370e+02,2.440894976761974249e+02,2.445723836490317353e+02,2.454053560540223771e+02,2.448903707083619850e+02,2.465102842353508379e+02,2.457384985467968193e+02,2.459842504157296332e+02,2.453470711669837385e+02,2.461551541862137356e+02,2.457083739322058875e+02,2.448585388140117516e+02,2.429998358589597842e+02,2.430400145208728020e+02,2.413590046852073385e+02,2.390546348259467493e+02,2.396604708566650288e+02,2.368185654871804502e+02,2.347394763073009187e+02,2.324512835625205298e+02,2.314720840552241725e+02,2.280768339645662479e+02,2.270737506592568877e+02,2.251096618807475238e+02,2.236437518233777837e+02,2.225233969793914071e+02,2.203974719747473614e+02,2.186787717149524894e+02,2.189832974142287014e+02,2.199867230497343087e+02,2.190253194050723096e+02,2.186668213332629307e+02,2.204391870294408307e+02,2.189212184750282972e+02,2.208399868876071821e+02,2.221646161016467147e+02,2.233662544395259886e+02,2.262296304668674622e+02,2.262802146352227339e+02,2.282583135269288732e+02,2.279165845444766205e+02,2.301268969747765993e+02,2.319515663425727894e+02,2.354481900108697516e+02,2.364836291912059210e+02,2.381968983268608326e+02,2.385402818488629748e+02,2.413631445663304760e+02,2.423191309707903258e+02,2.419214645057441828e+02,2.432508065449957826e+02,2.448831760716819588e+02,2.458285164567632819e+02,2.458515847711624076e+02,2.477722713123549170e+02,2.485585830211098255e+02,2.489093623566932081e+02,2.507801891438695634e+02,2.501926199496188588e+02,2.508767025100237902e+02,2.520464074563722647e+02,2.525582820660435743e+02,2.531178919536159242e+02,2.525857699583426381e+02,2.531455005411308719e+02,2.514730066856900805e+02,2.528030447071439539e+02,2.519792556588841137e+02,2.516548684652547934e+02
2.655543782769266841e+02,2.659073711531028721e+02,2.667999201265213287e+02,2.696275777540496961e+02,2.696514610470464390e+02,2.700286196045591396e+02,2.720362288201899901e+02,2.707685719384450636e+02,2.716148044395434340e+02,2.722335781613305699e+02,2.728773782811150568e+02,2.716894463461708256e+02,2.708965522926953895e+02,2.707334121346605684e+02,2.702502629702486843e+02,2.687816688612278426e+02,2.666334649190571895e+02,2.657333603317504753e+02,2.642520065302611556e+02,2.624106464631069002e+02,2.600147522545125298e+02,2.595458204962462787e+02,2.571813229844586317e+02,2.546193279214228085e+02,2.531230616115473708e+02,2.515357127773739023e+02,2.482356456585552564e+02,2.464673177766541130e+02,2.452873519809079994e+02,2.424891673449541258e+02,2.410088576743578699e+02,2.391579615124152269e+02,2.385019617336426734e+02,2.377514105605213217e+02,2.376689332790534763e+02,2.355474850533645110e+02,2.364129969004295901e+02,2.355558994260887005e+02,2.357923091409287792e+02,2.357925108983117184e+02,2.363989441925299673e+02,2.365683107517028532e+02,2.384977582400285314e+02,2.377635107491522604e+02,2.392209010485137810e+02,2.401731859136783669e+02,2.403161616579839404e+02,2.422302041806348996e+02,2.425373247007822499e+02,2.431699591462634089e+02,2.439387983577384205e+02,2.449895483004982282e+02,2.442380611744777070e+02,2.454071226073851335e+02,2.464281031667919422e+02,2.458184368493477621e+02,2.468682688780854164e+02,2.472830246769511007e+02,2.456262782857697005e+02,2.450923588788637346e+02,2.463096728784077527e+02,2.446362371706430281e+02,2.435830987119470592e+02,2.428746562466439229e+02,2.417511531935981566e+02,2.403659744964767810e+02,2.385565900209209929e+02,2.374311459245207629e+02,2.346748416016080796e+02,2.321773958220782674e+02,2.304140558698413486e+02,2.288396893004532160e+02,2.269475174104935036e+02,2.249258886936620456e+02,2.232906717093123632e+02,2.215535340321025899e+02,2.204001232953656029e+02,2.189949344062191301e+02,2.181246529622845856e+02,2.200232169755723532e+02,2.186335042433984768e+02,2.196618964431735321e+02,2.194285514397255668e+02,2.209454735332812447e+02,2.221668544221843149e+02,2.238228530762563935e+02,2.243070159118939273e+02,2.257794183073261820e+02,2.273712020392032684e+02,2.284295369577099279e+02,2.283864403734208679e+02,2.297212040706943412e+02,2.323928947784363288e+02,2.354214223530647700e+02,2.376819120447871114e+02,2.382887236677355531e+02,2.395868760801034227e+02,2.407855480874094098e+02,2.420612808676500833e+02,2.433597443483372160e+02,2.446971504507393149e+02,2.451780460112406388e+02,2.461305916768167208e+02,2.466400420602992369e+02,2.476315899323690246e+02,2.484683792172506287e+02,2.494970519749780351e+02,2.497831604214530330e+02,2.498209933127675413e+02,2.503145745071392980e+02,2.508053264887753357e+02,2.517510375720774789e+02,2.525481227365932284e+02,2.526744621714830430e+02,2.523177353600162007e+02,2.516374101441083155e+02,2.523790665888754461e+02,2.508301372967696636e+02,2.507021235245786386e+02
2.660233098847226074e+02,2.670696867497384233e+02,2.688295603263708244e+02,2.698358631111651675e+02,2.714800718158153927e+02,2.711055719853653727e+02,2.723945002218360401e+02,2.718390876407842143e+02,2.725786664100032795e+02,2.725253901000356791e+02,2.721215854859145793e+02,2.716334421212154098e+02,2.718620842781240299e+02,2.708422876127164614e+02,2.700992422959170653e+02,2.687741821666490409e+02,2.667141168402141034e+02,2.664276874475060595e+02,2.646147935501866755e+02,2.628729383249315674e+02,2.603938732223352304e+02,2.582618979035721054e+02,2.567009422821421936e+02,2.537301072736184153e+02,2.510177903222128464e+02,2.505420414894219334e+02,2.483702356002769989e+02,2.468214585590296508e+02,2.438502066831455011e+02,2.425612871326292748e+02,2.401018222079762268e+02,2.391978123926980686e+02,2.386426530796086922e+02,2.373174554402898195e+02,2.365027585776863930e+02,2.361591109578909879e+02,2.360943142593751531e+02,2.353398117559729315e+02,2.365075054425427652e+02,2.356046017957613685e+02,2.370567806344369615e+02,2.368937260020909719e+02,2.380692521426907717e+02,2.388723328639120496e+02,2.403827757394097659e+02,2.398394873289891507e+02,2.415977818481687507e+02,2.430220005839020700e+02,2.433524797296592510e+02,2.436010219158298185e+02,2.444184789012944634e+02,2.447757655907376204e+02,2.454269969774312870e+02,2.467555899005364211e+02,2.467110161634246595e+02,2.482933999422128011e+02,2.474468992780989538e+02,2.471781596410404802e+02,2.463404974400916387e+02,2.471204815977785358e+02,2.461717961505181904e+02,2.453137224981136626e+02,2.440256519216234494e+02,2.428668994596315827e+02,2.416232286392362596e+02,2.402037818236971987e+02,2.394151436314822945e+02,2.362960853790459055e+02,2.347676501456989797e+02,2.325267365884693049e+02,2.306503823605626451e+02,2.282887447088482986e+02,2.272981828114549785e+02,2.246955840426379325e+02,2.235463644157111673e+02,2.217820097137691846e+02,2.203524010895038998e+02,2.199016633697926011e+02,2.188187606670987861e+02,2.189047705150264846e+02,2.193871622126990530e+02,2.194737519621162107e+02,2.207168107916672000e+02,2.214742645629531808e+02,2.225251687764030635e+02,2.238863913774968637e+02,2.246684587757949600e+02,2.270667668194525106e+02,2.284115570364696453e+02,2.290480068044354880e+02,2.288855915824277361e+02,2.289753761025091876e+02,2.315409254594808885e+02,2.346836656144224662e+02,2.370196670789677569e+02,2.394274529885524885e+02,2.405774259385415519e+02,2.426944029846165165e+02,2.415232735841151168e+02,2.436651711753252982e+02,2.442210070456999063e+02,2.461575137783816274e+02,2.457031095103083658e+02,2.470194786923962909e+02,2.485406496740635305e+02,2.485227119721995734e+02,2.494468306072481880e+02,2.499315457660088100e+02,2.509401664609472107e+02,2.514939325131141175e+02,2.513537380154079699e+02,2.504870247755369235e+02,2.516296740420479239e+02,2.518262809366786712e+02,2.514470026693377349e+02,2.513509743524010105e+02,2.513371254971787039e+02,2.505799455391378388e+02,2.502273998768608010e+02
2.668955847098504819e+02,2.684478901866675074e+02,2.696231711429712732e+02,2.699464999841191002e+02,2.714324024719492172e+02,2.716136616929922525e+02,2.728153409269663712e+02,2.734220731858025033e+02,2.720873742038526757e+02,2.733278270365902927e+02,2.729097861699252121e+02,2.725075179963339451e+02,2.709753103735226318e+02,2.701359522309858221e+02,2.700654544856864163e+02,2.685037821436904437e+02,2.670885710310242871e+02,2.654927857746989162e+02,2.639028112110112829e+02,2.617029901749408509e+02,2.598636573799108760e+02,2.581158682004053162e+02,2.553279437933212819e+02,2.528793891600419101e+02,2.514874461239739958e+02,2.491414877831881256e+02,2.472444483647018103e+02,2.445790140368517029e+02,2.432704396455420124e+02,2.419696692606988790e+02,2.397337540720061497e+02,2.392234212616786806e+02,2.383324327946870937e+02,2.370921878772394109e+02,2.371601569132050145e+02,2.365937468942467206e+02,2.353608109791930474e+02,2.352736185264804760e+02,2.365220755108337585e+02,2.362499425267629931e+02,2.370734555303862123e+02,2.374667825044745655e+02,2.390783290530774821e+02,2.398750816448429646e+02,2.413950688898348460e+02,2.418284742497533557e+02,2.414546389281790653e+02,2.430307972608714806e+02,2.440267820830812582e+02,2.443181123798925398e+02,2.455117261164176057e+02,2.458407909905984923e+02,2.465748913577951384e+02,2.467658505630098205e+02,2.471608043863445232e+02,2.478776211181934741e+02,2.482723019383041958e+02,2.485207416869862413e+02,2.466702198460189095e+02,2.463511115207620890e+02,2.458631126683181094e+02,2.454992182340325542e+02,2.446703850472488284e+02,2.433471233845424138e+02,2.411265732173525294e+02,2.398144435805478167e+02,2.389454382846719227e+02,2.364954152915491363e+02,2.334047182188995180e+02,2.323951110835365910e+02,2.313226746266026339e+02,2.280765407497261492e+02,2.278312867906192878e+02,2.252352054224793108e+02,2.237192153847450413e+02,2.226497477358868764e+02,2.201652422656826786e+02,2.200688836933815651e+02,2.201148395729032359e+02,2.193006424306747988e+02,2.196170068280352439e+02,2.195493451450093119e+02,2.208424196583422656e+02,2.211723101228399173e+02,2.235146834272611898e+02,2.243131700874416765e+02,2.268557093965192166e+02,2.282569281414482703e+02,2.279505430918210607e+02,2.300497600918615149e+02,2.288409189986216461e+02,2.278479108259159602e+02,2.311920842551830049e+02,2.359259583994943057e+02,2.384441031581743573e+02,2.397706722769485452e+02,2.409097049150375369e+02,2.416932962918393173e+02,2.430253822418561924e+02,2.444923495299883882e+02,2.448653748862528801e+02,2.460806621751869443e+02,2.469837878060622529e+02,2.476537296796001613e+02,2.486938610906088911e+02,2.479901301083668841e+02,2.482216682150340432e+02,2.494492081709806541e+02,2.507559584024224080e+02,2.499824590714627561e+02,2.511388751560745618e+02,2.508245596636949983e+02,2.514030594144994382e+02,2.505646807074161302e+02,2.512466823072361422e+02,2.506276415876825183e+02,2.498439293982937670e+02,2.500203101193627333e+02,2.501442346353176731e+02
2.681712635851707773e+02,2.692219197772251391e+02,2.706525324639706014e+02,2.708500130783886561e+02,2.718088225425128712e+02,2.728526683560563697e+02,2.729513713886325945e+02,2.731314071961772356e+02,2.744199737106463886e+02,2.736034941666489999e+02,2.725669286552150083e+02,2.722643595886710273e+02,2.727231999397293976e+02,2.709959909735971451e+02,2.685528853106981728e+02,2.678599911567510503e+02,2.668404354761984223e+02,2.651831177155669934e+02,2.633531660670486758e+02,2.614222642351388117e+02,2.585284866926328391e+02,2.573098721310187784e+02,2.552082173348836136e+02,2.523815784995114484e+02,2.511733523883880537e+02,2.484510069218429464e+02,2.472659059192657480e+02,2.454749992254804454e+02,2.425233570553718607e+02,2.413543282568342647e+02,2.397228003022747771e+02,2.381637919860134218e+02,2.373469622139307091e+02,2.362454511428303476e+02,2.363509026788915151e+02,2.364345643420427621e+02,2.371719230786762864e+02,2.366372327730135510e+02,2.366278983503065092e+02,2.371769428499588344e+02,2.374408436503230462e+02,2.380380424204743122e+02,2.385510216264496250e+02,2.406844734807748125e+02,2.412980151922144501e+02,2.422832834626762804e+02,2.426813925043546192e+02,2.439384534163032754e+02,2.452871443199295811e+02,2.456038971654415946e+02,2.457935517213348362e+02,2.475306068702710149e+02,2.468792777278330277e+02,2.483843783139049037e+02,2.481834923972609488e+02,2.482117494286920873e+02,2.487414543250138763e+02,2.481395635408240423e+02,2.482096959565839995e+02,2.474918005868272530e+02,2.467945025647981936e+02,2.455697354393435603e+02,2.448714177554566618e+02,2.439184865552692827e+02,2.422784012120762327e+02,2.410378470418942811e+02,2.384145048637792854e+02,2.368385236841361916e+02,2.347042343381433511e+02,2.324770834684633769e+02,2.309313622832419242e+02,2.286912536415207171e+02,2.270729212834814064e+02,2.251409743259854679e+02,2.238287670714235276e+02,2.223668165220758794e+02,2.212635884918500153e+02,2.206002176713516008e+02,2.207336696426681044e+02,2.199731562795074638e+02,2.193865255141223827e+02,2.205053874244381120e+02,2.222248465721570767e+02,2.222418637190146455e+02,2.231319434472273144e+02,2.255823043947562780e+02,2.267899305890326787e+02,2.282903559521192562e+02,2.288533968470638058e+02,2.299035676526111729e+02,2.278937943691496173e+02,2.273531193429854511e+02,2.307935318266388833e+02,2.363577282089838718e+02,2.384415905789291799e+02,2.397341173126315823e+02,2.416802449697845532e+02,2.417495826025895838e+02,2.437346273449092848e+02,2.442487962959733352e+02,2.457063334599250766e+02,2.451372958982162231e+02,2.462817628270031776e+02,2.471808943826216023e+02,2.481938403529561867e+02,2.479491672972473850e+02,2.492286787246670485e+02,2.490047680325998840e+02,2.489041387838770163e+02,2.494891444509020459e+02,2.500134970398616758e+02,2.509507477289230337e+02,2.510512560174904024e+02,2.501074409340209002e+02,2.502511527298392195e+02,2.497480824655741856e+02,2.500403241135783219e+02,2.491581370283616366e+02,2.488199268651293039e+02
2.690177919750026945e+02,2.691973817577465411e+02,2.703121853591689501e+02,2.710269974289894890e+02,2.727375938275986869e+02,2.725100098309845862e+02,2.729124524673243855e+02,2.743258797215700611e+02,2.737884496580658151e+02,2.739775584103015262e+02,2.731331930412902693e+02,2.719632022177509043e+02,2.708754822403758453e+02,2.703315023972049858e+02,2.697647993823905495e+02,2.670731619283647547e+02,2.663398518966776578e+02,2.649108067673802793e+02,2.625676950764835169e+02,2.604671462368718267e+02,2.580279546599683727e+02,2.559895680902239121e+02,2.541087631039843302e+02,2.521879540269083577e+02,2.499697281673699649e+02,2.478883237401250597e+02,2.453763695857975335e+02,2.445157424138196518e+02,2.421652507905235723e+02,2.421414481980046673e+02,2.402997915444484534e+02,2.384008690798558803e+02,2.375954399985848795e+02,2.369128864336693141e+02,2.366023363893876876e+02,2.360668161924111530e+02,2.361961165532268296e+02,2.364570579064736364e+02,2.371474681691102262e+02,2.378474676301109412e+02,2.384270083558561737e+02,2.397899628482053060e+02,2.402844908351484605e+02,2.413580649311959405e+02,2.425629169752138523e+02,2.427216787359375871e+02,2.447145454411650292e+02,2.446458036170734260e+02,2.452835846540978082e+02,2.460783228271567680e+02,2.474345148223338811e+02,2.484487287979072789e+02,2.483131645523023110e+02,2.495821247751076157e+02,2.484273360917316893e+02,2.499143919122519435e+02,2.493731158238023227e+02,2.490327960557396239e+02,2.481243099188999963e+02,2.484014679476010770e+02,2.465838527392691617e+02,2.460509701801335893e+02,2.445681175471597442e+02,2.430813764051125361e+02,2.425766069416641244e+02,2.403059914343108403e+02,2.381552110709266117e+02,2.378561424977756360e+02,2.353837119754041112e+02,2.329252662342652229e+02,2.308960795780369608e+02,2.287907894870146208e+02,2.276608151133523279e+02,2.243908176556295473e+02,2.243863963272040394e+02,2.231860291659981215e+02,2.208712903576404472e+02,2.202266968419937996e+02,2.199227489871100829e+02,2.203607768271344867e+02,2.203260888633028287e+02,2.212306037123586577e+02,2.231093539197648852e+02,2.238872820803253489e+02,2.232092875777102847e+02,2.249635941471690046e+02,2.272449491185664385e+02,2.282379351406760861e+02,2.301273803623784602e+02,2.303174151903008635e+02,2.285355376329648038e+02,2.271270098140758193e+02,2.321970412191857633e+02,2.362554725004797547e+02,2.384279960138649983e+02,2.412259409381131547e+02,2.418619840899702353e+02,2.429899846712181386e+02,2.439874400894263147e+02,2.447704913208253572e+02,2.450120226861593267e+02,2.453321820476225241e+02,2.463938220095551230e+02,2.464835789079461676e+02,2.469956058398688299e+02,2.472953891944416682e+02,2.476352129126412365e+02,2.485468281050270036e+02,2.489634272014934311e+02,2.494944116347679710e+02,2.494952203199615610e+02,2.492474376723381795e+02,2.490000962870736885e+02,2.502693731869851774e+02,2.494862931371852142e+02,2.478635484343543851e+02,2.481385252375735320e+02,2.490144209038172676e+02,2.489329853389533014e+02
2.697076091834035196e+02,2.697811234503623723e+02,2.711634626456936417e+02,2.712300981713434567e+02,2.722724769538976375e+02,2.725907912734874685e+02,2.739977510117262227e+02,2.735681037285921775e+02,2.737810523984443876e+02,2.734677275462075272e+02,2.729781177218131347e+02,2.720590451991879490e+02,2.702666419127778568e+02,2.700086230024622296e+02,2.693703633885257318e+02,2.670116841690136766e+02,2.653739193764520223e+02,2.634263141553066703e+02,2.629910203761597813e+02,2.595068319953804235e+02,2.567915721770165192e+02,2.554083983171729528e+02,2.541275873825773033e+02,2.515474332369283275e+02,2.491437859660519223e+02,2.481369406816725700e+02,2.454912169701600817e+02,2.432910602248263103e+02,2.418043519530310732e+02,2.409079836671763815e+02,2.393687593905752351e+02,2.385769179868005949e+02,2.378701669467085651e+02,2.363845751178363628e+02,2.360352920083646211e+02,2.362186434148677279e+02,2.375965457898914224e+02,2.368153500931108795e+02,2.376225439632229097e+02,2.385818614917266984e+02,2.392680728916525652e+02,2.394526584198272303e+02,2.413442534412533860e+02,2.415334061629401958e+02,2.424960309997530885e+02,2.451512488766522324e+02,2.444721209783077427e+02,2.462670081713482375e+02,2.463852180567189691e+02,2.483849319112580076e+02,2.480676908116726054e+02,2.492227029878749534e+02,2.493604378924919160e+02,2.499713800830403159e+02,2.504475955286203259e+02,2.502400162678749780e+02,2.502505448791623621e+02,2.494128903620121775e+02,2.480726452056828748e+02,2.484015947571105869e+02,2.476250138552974818e+02,2.471950938405270222e+02,2.450795954866166824e+02,2.441477415019034538e+02,2.425387721354977089e+02,2.408086759580919249e+02,2.390869496487777610e+02,2.369887784583850987e+02,2.352060667410704582e+02,2.331678054837061609e+02,2.318827672603517271e+02,2.291320801376751035e+02,2.275546802643567048e+02,2.266830500269945503e+02,2.243861927060874280e+02,2.228516391114407327e+02,2.228359015369664178e+02,2.219357707418154746e+02,2.216765769177535788e+02,2.213234351806578388e+02,2.212765187757829892e+02,2.217536487327791974e+02,2.229171017665922534e+02,2.228131687846052102e+02,2.252334290849236424e+02,2.265853948064096812e+02,2.272879194656761683e+02,2.280308713059160368e+02,2.311718271444417780e+02,2.314818948627890052e+02,2.277754902208402257e+02,2.261671404250469095e+02,2.314284392250357314e+02,2.374152658240849973e+02,2.396755407636918278e+02,2.412439908893251470e+02,2.413122680382165868e+02,2.431301655715717231e+02,2.435602567795063180e+02,2.445380681506693463e+02,2.458292814310615029e+02,2.454999304206346835e+02,2.469381614222821213e+02,2.466332264174741624e+02,2.457654005644252777e+02,2.476690549031031026e+02,2.486126416402980794e+02,2.490926899258872993e+02,2.487908797203204756e+02,2.485549457853441879e+02,2.495557783182657090e+02,2.493049546611516405e+02,2.488332886791998249e+02,2.490122082567079929e+02,2.497077899856737133e+02,2.484873484283122309e+02,2.478591788219916054e+02,2.481718976275714397e+02,2.480641859755428129e+02
2.685160648309092721e+02,2.711761019765020819e+02,2.708529381731262333e+02,2.719286652419066286e+02,2.723107188861241070e+02,2.724808003259188922e+02,2.730877178646940706e+02,2.735030485174211208e+02,2.727867534691820879e+02,2.723168617566711305e+02,2.721619526334152397e+02,2.709582614707188100e+02,2.711183106113617782e+02,2.685155756344009319e+02,2.680586971737358795e+02,2.674586226912109623e+02,2.645270811212395756e+02,2.633245880244678574e+02,2.617564816635007219e+02,2.588721833155144623e+02,2.575529846267446601e+02,2.544741771371364223e+02,2.527890176715163477e+02,2.498281164100250749e+02,2.480431914419756083e+02,2.464025603643646605e+02,2.444019760525231959e+02,2.422173290294123547e+02,2.412365569614265439e+02,2.394047279677332654e+02,2.383522901811137729e+02,2.372556731827505985e+02,2.370599372465657950e+02,2.363198540262852703e+02,2.354709333361342090e+02,2.366704864493983109e+02,2.368209075263536363e+02,2.378310950134749362e+02,2.378177658771144536e+02,2.383065718560957862e+02,2.402771057021622028e+02,2.397530111571555835e+02,2.412837904692020743e+02,2.430321627668633369e+02,2.437011151678142937e+02,2.450304871052577198e+02,2.470580371716218906e+02,2.468972718504001023e+02,2.488475505112961343e+02,2.485874638873243327e+02,2.491666351292035131e+02,2.510013963155650458e+02,2.502454383311802530e+02,2.502716262156485527e+02,2.514841872935302547e+02,2.503767667158443260e+02,2.519277965638520698e+02,2.501130746070725763e+02,2.506245423126797505e+02,2.497184787038120533e+02,2.477631989168549751e+02,2.480066549102295994e+02,2.470696796261323982e+02,2.454725424561224543e+02,2.421981559631825291e+02,2.411638636719359283e+02,2.397559748515708691e+02,2.381386499726966974e+02,2.354046182439390407e+02,2.328893898198992929e+02,2.322297578207278832e+02,2.301203029951095971e+02,2.275380928152390254e+02,2.269932500855967419e+02,2.246780830651737233e+02,2.238767346265669858e+02,2.222641508534830166e+02,2.232869689467220269e+02,2.229113507709785438e+02,2.221230582870065575e+02,2.222263598882131816e+02,2.230141211078760648e+02,2.230607948517089767e+02,2.255102086334016178e+02,2.263586923255297165e+02,2.271645877519206920e+02,2.287319062268756511e+02,2.298898824158624166e+02,2.313847502049610796e+02,2.309912278879493499e+02,2.285275145314895440e+02,2.263962977736457276e+02,2.309313140761153988e+02,2.359408192975526788e+02,2.397211642904753433e+02,2.408112943302992903e+02,2.433256179869496520e+02,2.437098980621886710e+02,2.450264976599067666e+02,2.454519777316681939e+02,2.454419970447112007e+02,2.460491876987351816e+02,2.463679735565895896e+02,2.465634026993285204e+02,2.473235992985780172e+02,2.471464507647375228e+02,2.473888890733018968e+02,2.482533682038298082e+02,2.488673652275494703e+02,2.485536417519390398e+02,2.483090274431031901e+02,2.486659502518382396e+02,2.488354784121599721e+02,2.485627831897460283e+02,2.482629929729250193e+02,2.473628808479406302e+02,2.488039543160441838e+02,2.474111095284831094e+02,2.470028948548242056e+02
2.687220774310374054e+02,2.687446172975613763e+02,2.711521682192766320e+02,2.710606949518997908e+02,2.721741472680660650e+02,2.720464826266156138e+02,2.724838041504007720e+02,2.728392528088785411e+02,2.719895999222885621e+02,2.729381551134280244e+02,2.720927020725450802e+02,2.710443498898655434e+02,2.692865287214345926e+02,2.682162674526736623e+02,2.672008595986172850e+02,2.657373743982560654e+02,2.627989735947363670e+02,2.620750500235242271e+02,2.604771918849207850e+02,2.583375450673588603e+02,2.569043797023248885e+02,2.537288710843070874e+02,2.520163967154521742e+02,2.494816160845715842e+02,2.482361688017802237e+02,2.453583557065426248e+02,2.429773518088991011e+02,2.424016390321458232e+02,2.410779062175147942e+02,2.399603650222650799e+02,2.375140399281823420e+02,2.378893803563933318e+02,2.364013063163720290e+02,2.374255657812543632e+02,2.364580163516378377e+02,2.370878854756352894e+02,2.371806736954831649e+02,2.378591153179427238e+02,2.384985846838571319e+02,2.394200682807911562e+02,2.400568065585758859e+02,2.422125174838979547e+02,2.428137626407864218e+02,2.438748544036831731e+02,2.451935368587195114e+02,2.469148987073567412e+02,2.481946011566423920e+02,2.474140481703813350e+02,2.484611826317100167e+02,2.498320783264851173e+02,2.497650224267024441e+02,2.506937694968812025e+02,2.516220654101855416e+02,2.521870342283548325e+02,2.525911680785236229e+02,2.527069863869274968e+02,2.525748831083649861e+02,2.512009774162365545e+02,2.502733717742881083e+02,2.499611862516791518e+02,2.485732918870291428e+02,2.478569168190333585e+02,2.476613672676056694e+02,2.452653426855017926e+02,2.445685476827617322e+02,2.417841442888108077e+02,2.396761506239110702e+02,2.379783617538355998e+02,2.351342093302991998e+02,2.338512766360930186e+02,2.334270575214314647e+02,2.309760731016334603e+02,2.289424375413737209e+02,2.272837074400798940e+02,2.268299806651696429e+02,2.253653970970445357e+02,2.245437350197577473e+02,2.239807676502268237e+02,2.231167147720917967e+02,2.225050471152065086e+02,2.229242145096819741e+02,2.239430051525989711e+02,2.243149716361127730e+02,2.253024151475739814e+02,2.261004032208907972e+02,2.283732329089100404e+02,2.281352073763013095e+02,2.307819291702168414e+02,2.327395726421785298e+02,2.324093143929631253e+02,2.289635781368739629e+02,2.262145970888108479e+02,2.313143062919967576e+02,2.373715311148689580e+02,2.403024807733185071e+02,2.412380082951105180e+02,2.432518546846660001e+02,2.438493045693745671e+02,2.446109242130116286e+02,2.457619995215896154e+02,2.455128157299581630e+02,2.454226827104879192e+02,2.457347123036580570e+02,2.468285434767925040e+02,2.478307932899928119e+02,2.470936592691938642e+02,2.483428275121228523e+02,2.484775388024238794e+02,2.475274942685152837e+02,2.484885707543248259e+02,2.483806832873943620e+02,2.487759221826141243e+02,2.476790112441484553e+02,2.480623983821089382e+02,2.485282093691214413e+02,2.480148919825809628e+02,2.472719119824674863e+02,2.470793073016246240e+02,2.468453803770998150e+02
2.685279564146880489e+02,2.698024716733701780e+02,2.709690836647727679e+02,2.720512857714739425e+02,2.720648991065650648e+02,2.720101844081425497e+02,2.722907302641767728e+02,2.725308121290322561e+02,2.720532566358746180e+02,2.717425027420155175e+02,2.714512092775271412e+02,2.707648664098888389e+02,2.694428193025727296e+02,2.681698531401527816e+02,2.654050203293887193e+02,2.645492856168991125e+02,2.627259931903556094e+02,2.606051552736415147e+02,2.586165517061596120e+02,2.563143219573876763e+02,2.541654508036766913e+02,2.527534492431030060e+02,2.501684953972226992e+02,2.484733263775801788e+02,2.464552743805937780e+02,2.447129262967982299e+02,2.429346604184797229e+02,2.414782525872518022e+02,2.408020875053751411e+02,2.384802151003302981e+02,2.380016408288205128e+02,2.376171729537344959e+02,2.373635031520780956e+02,2.362537643186564651e+02,2.377953718510900103e+02,2.372455157253220932e+02,2.377616127902304015e+02,2.383440901772729035e+02,2.389495360324123396e+02,2.404600437319018340e+02,2.410339579178959468e+02,2.434690381957958891e+02,2.439651565681699026e+02,2.448507772020054745e+02,2.462301989744345576e+02,2.466399453372473261e+02,2.482483659674800833e+02,2.495228806724364006e+02,2.502777991436444438e+02,2.507743544248535841e+02,2.512403834929401967e+02,2.515481961618216928e+02,2.534460013131480025e+02,2.533717790091087636e+02,2.532587502897382592e+02,2.534097267817712691e+02,2.525109718989861562e+02,2.525969977075083364e+02,2.512444864149873354e+02,2.505782128501436432e+02,2.501942879102363122e+02,2.486600016812132878e+02,2.468475053971028217e+02,2.453786976284985997e+02,2.436646006761912702e+02,2.418961412121252010e+02,2.406280398355094690e+02,2.386479917615479280e+02,2.361271308023547419e+02,2.351551742862058347e+02,2.328436822564834756e+02,2.312505768243529189e+02,2.298724491404374817e+02,2.279279860627827929e+02,2.276409645303056948e+02,2.261873119722469596e+02,2.249027818212523755e+02,2.249541893791435427e+02,2.241479027427743347e+02,2.240452453752181725e+02,2.241886940821236465e+02,2.241105636079616374e+02,2.261946214400607289e+02,2.265294004071653546e+02,2.273223657488290428e+02,2.293949344035232230e+02,2.300508159876308412e+02,2.319847911207451432e+02,2.331737472401348441e+02,2.324859946815507215e+02,2.300845085990804364e+02,2.269246261265771238e+02,2.324272480104450835e+02,2.378958464886393358e+02,2.409648397233481489e+02,2.421833434505377340e+02,2.433628135044195346e+02,2.446195687857143355e+02,2.446059640153204384e+02,2.448129375322089061e+02,2.463028030965267590e+02,2.464562036506101208e+02,2.471782100928606098e+02,2.475255627417907647e+02,2.467545097862856949e+02,2.480347774972975117e+02,2.477757075777057310e+02,2.472812613580595098e+02,2.473355453949048695e+02,2.474323684755006241e+02,2.475632681343126364e+02,2.478485639306796315e+02,2.481039448284435025e+02,2.488512053701758759e+02,2.482551770687460362e+02,2.477699554361569483e+02,2.474582002336207154e+02,2.473644303966698601e+02,2.470522195743408815e+02
